ply
format ascii 1.0
comment 2D Gaussian splats: pk, tu, tv, scales, diffuse albedo, opacity
element vertex 271
property float x
property float y
property float z
property float tu_x
property float tu_y
property float tu_z
property float tv_x
property float tv_y
property float tv_z
property float su
property float sv
property float albedo_r
property float albedo_g
property float albedo_b
property float opacity
property float beta
property float shape
end_header
-0.0515220 -0.2863090 0.1322160 -0.8961540 0.4437433 0.0000000 -0.0614282 -0.1240563 -0.9903719 0.0200000 0.0200000 0.5328000 0.8400000 0.7968000 1.0000000 -0.5000000 0.0000000
0.1346000 0.0616320 0.2067220 0.5767615 -0.8169126 0.0000000 0.4925729 0.3477693 -0.7977646 0.0200000 0.0200000 0.5328000 0.8400000 0.7968000 1.0000000 -0.5000000 0.0000000
-0.1691440 0.1784650 0.4616110 -0.9918521 0.1273944 0.0000000 -0.1239289 -0.9648709 -0.2316586 0.0200000 0.0200000 0.5328000 0.8400000 0.7968000 1.0000000 -0.5000000 0.0000000
-0.0755960 0.1961240 0.0409790 0.9987295 -0.0503931 0.0000000 -0.0291535 -0.5777860 -0.8156674 0.0200000 0.0200000 0.5328000 0.8400000 0.7968000 1.0000000 -0.5000000 0.0000000
-0.1695890 0.0822180 0.3401080 -0.2699475 0.9628750 0.0000000 0.7369939 0.2066205 -0.6435433 0.0200000 0.0200000 0.5328000 0.8400000 0.7968000 1.0000000 -0.5000000 0.0000000
0.0261850 -0.0032500 0.5541980 0.1518086 -0.9884099 0.0000000 0.8829368 0.1356091 -0.4494806 0.0200000 0.0200000 0.5328000 0.8400000 0.7968000 1.0000000 -0.5000000 0.0000000
0.0249240 0.0501050 -0.0000370 0.9999952 -0.0000000 0.0030860 0.0000093 -0.9999954 -0.0030280 0.0200000 0.0200000 0.5328000 0.8400000 0.7968000 1.0000000 -0.5000000 0.0000000
-0.1991480 0.1526120 0.0649390 0.5554869 0.8315253 -0.0000000 0.3453058 -0.2306759 -0.9096992 0.0200000 0.0200000 0.5328000 0.8400000 0.7968000 1.0000000 -0.5000000 0.0000000
-0.1658810 0.0991380 0.0030040 0.3060304 0.9520217 -0.0000000 0.8694251 -0.2794794 -0.4074202 0.0200000 0.0200000 0.5328000 0.8400000 0.7968000 1.0000000 -0.5000000 0.0000000
-0.0673570 0.1119360 -0.0000220 1.0000000 0.0000000 -0.0000510 0.0000000 -1.0000000 0.0000110 0.0200000 0.0200000 0.5328000 0.8400000 0.7968000 1.0000000 -0.5000000 0.0000000
-0.2120060 0.0314020 0.0314510 -0.0019319 0.9999981 0.0000000 0.6678137 0.0012902 -0.7443273 0.0200000 0.0200000 0.5328000 0.8400000 0.7968000 1.0000000 -0.5000000 0.0000000
0.0272590 0.0657350 0.3074590 0.6345843 -0.7728537 0.0000000 -0.4557325 -0.3741985 -0.8076406 0.0200000 0.0200000 0.5328000 0.8400000 0.7968000 1.0000000 -0.5000000 0.0000000
-0.0281220 -0.1571280 0.4490650 -0.9995928 0.0285362 0.0000000 -0.0038078 -0.1333826 -0.9910573 0.0200000 0.0200000 0.5328000 0.8400000 0.7968000 1.0000000 -0.5000000 0.0000000
0.1798230 0.0437940 0.1349790 0.4810726 -0.8766807 0.0000000 0.1341523 0.0736152 -0.9882226 0.0200000 0.0200000 0.5328000 0.8400000 0.7968000 1.0000000 -0.5000000 0.0000000
0.0921280 -0.2233870 0.0000460 0.9999910 -0.0000000 0.0042371 -0.0000331 -0.9999695 0.0078129 0.0200000 0.0200000 0.5328000 0.8400000 0.7968000 1.0000000 -0.5000000 0.0000000
-0.1840260 0.1713520 0.4372020 0.9980720 0.0620670 -0.0000000 0.0366989 -0.5901391 -0.8064670 0.0200000 0.0200000 0.5328000 0.8400000 0.7968000 1.0000000 -0.5000000 0.0000000
0.1614890 -0.2874940 0.1489590 -0.7434103 -0.6688357 0.0000000 -0.0141071 0.0156800 -0.9997775 0.0200000 0.0200000 0.5328000 0.8400000 0.7968000 1.0000000 -0.5000000 0.0000000
0.1799770 0.0161500 0.1780040 0.3880427 -0.9216414 0.0000000 0.3657305 0.1539851 -0.9178942 0.0200000 0.0200000 0.5328000 0.8400000 0.7968000 1.0000000 -0.5000000 0.0000000
-0.0794410 -0.0898130 0.5364950 -0.8394224 0.5434796 0.0000000 -0.4162235 -0.6428712 -0.6430199 0.0200000 0.0200000 0.5328000 0.8400000 0.7968000 1.0000000 -0.5000000 0.0000000
-0.0221170 -0.2781310 0.0284490 -0.9364198 0.3508817 0.0000000 0.1844755 0.4923210 -0.8506402 0.0200000 0.0200000 0.5328000 0.8400000 0.7968000 1.0000000 -0.5000000 0.0000000
0.0430460 0.1622840 0.0508760 0.8348598 -0.5504626 0.0000000 -0.2666122 -0.4043577 -0.8748787 0.0200000 0.0200000 0.5328000 0.8400000 0.7968000 1.0000000 -0.5000000 0.0000000
-0.2216870 0.0312910 0.1950820 -0.0339545 0.9994234 0.0000000 -0.4454091 -0.0151323 -0.8951993 0.0200000 0.0200000 0.5328000 0.8400000 0.7968000 1.0000000 -0.5000000 0.0000000
-0.0864340 0.1098530 -0.0000040 0.9999999 0.0000000 -0.0004630 0.0000006 -0.9999992 0.0012880 0.0200000 0.0200000 0.5328000 0.8400000 0.7968000 1.0000000 -0.5000000 0.0000000
-0.0032820 0.1196180 0.0008600 0.8465575 -0.5322973 0.0000000 -0.5239806 -0.8333308 -0.1760802 0.0200000 0.0200000 0.5328000 0.8400000 0.7968000 1.0000000 -0.5000000 0.0000000
-0.1428190 0.0210060 0.2777450 -0.1514352 0.9884672 0.0000000 -0.6995640 -0.1071747 -0.7064869 0.0200000 0.0200000 0.5328000 0.8400000 0.7968000 1.0000000 -0.5000000 0.0000000
-0.1048580 -0.2553550 0.0695410 -0.7928518 0.6094146 0.0000000 0.1878197 0.2443545 -0.9513226 0.0200000 0.0200000 0.5328000 0.8400000 0.7968000 1.0000000 -0.5000000 0.0000000
-0.0479530 -0.1898340 0.2505990 -0.7864490 0.6176552 0.0000000 -0.5323584 -0.6778422 -0.5070744 0.0200000 0.0200000 0.5328000 0.8400000 0.7968000 1.0000000 -0.5000000 0.0000000
0.1423700 -0.1825340 0.2562820 0.1858823 -0.9825720 0.0000000 0.7257925 0.1373049 -0.6740717 0.0200000 0.0200000 0.5328000 0.8400000 0.7968000 1.0000000 -0.5000000 0.0000000
-0.0266580 -0.2970090 0.0841140 -0.9530197 0.3029082 0.0000000 0.0434976 0.1368536 -0.9896358 0.0200000 0.0200000 0.5328000 0.8400000 0.7968000 1.0000000 -0.5000000 0.0000000
-0.0838430 0.1408050 0.2601220 0.9981499 0.0608012 -0.0000000 -0.0499831 0.8205535 -0.5693800 0.0200000 0.0200000 0.5328000 0.8400000 0.7968000 1.0000000 -0.5000000 0.0000000
-0.0483130 0.2009230 0.1935860 0.9668580 -0.2553145 0.0000000 0.1126844 0.4267277 -0.8973325 0.0200000 0.0200000 0.5328000 0.8400000 0.7968000 1.0000000 -0.5000000 0.0000000
-0.0577530 -0.1435010 -0.0000400 0.9999998 0.0000000 -0.0006820 0.0000004 -0.9999998 0.0006540 0.0200000 0.0200000 0.5328000 0.8400000 0.7968000 1.0000000 -0.5000000 0.0000000
0.1197860 -0.1898960 0.2776790 0.5188508 -0.8548648 0.0000000 0.5924458 0.3595785 -0.7209101 0.0200000 0.0200000 0.5328000 0.8400000 0.7968000 1.0000000 -0.5000000 0.0000000
0.1150990 -0.2051200 0.3045650 0.8108215 -0.5852935 0.0000000 0.2797207 0.3875040 -0.8784059 0.0200000 0.0200000 0.5328000 0.8400000 0.7968000 1.0000000 -0.5000000 0.0000000
-0.0937660 0.1050670 0.2821640 0.9269797 0.3751115 -0.0000000 -0.2796670 0.6911162 -0.6664418 0.0200000 0.0200000 0.5328000 0.8400000 0.7968000 1.0000000 -0.5000000 0.0000000
-0.1162740 -0.2361000 0.0533940 -0.7178038 0.6962454 0.0000000 0.3281961 0.3383583 -0.8819303 0.0200000 0.0200000 0.5328000 0.8400000 0.7968000 1.0000000 -0.5000000 0.0000000
-0.1570450 0.2081970 0.1035920 0.9017048 0.4323523 -0.0000000 0.0824651 -0.1719875 -0.9816414 0.0200000 0.0200000 0.5328000 0.8400000 0.7968000 1.0000000 -0.5000000 0.0000000
-0.1754720 0.0144660 0.0036190 -0.1015465 0.9948308 0.0000000 0.9176848 0.0936719 -0.3861090 0.0200000 0.0200000 0.5328000 0.8400000 0.7968000 1.0000000 -0.5000000 0.0000000
-0.1771520 0.1817630 0.0701740 0.7486399 0.6629768 -0.0000000 0.2653240 -0.2996065 -0.9164274 0.0200000 0.0200000 0.5328000 0.8400000 0.7968000 1.0000000 -0.5000000 0.0000000
-0.1250280 -0.1772860 0.2198860 -0.6791473 0.7340020 0.0000000 -0.5377591 -0.4975704 -0.6806165 0.0200000 0.0200000 0.5328000 0.8400000 0.7968000 1.0000000 -0.5000000 0.0000000
0.0688400 -0.0684460 0.2755050 0.0964565 -0.9953372 0.0000000 0.9706511 0.0940642 -0.2213331 0.0200000 0.0200000 0.5328000 0.8400000 0.7968000 1.0000000 -0.5000000 0.0000000
0.0944590 0.1217790 0.0498490 0.7645948 -0.6445113 0.0000000 -0.3334759 -0.3956082 -0.8557382 0.0200000 0.0200000 0.5328000 0.8400000 0.7968000 1.0000000 -0.5000000 0.0000000
-0.0921330 -0.1412230 0.4056410 -0.8927045 0.4506426 0.0000000 0.0608755 0.1205919 -0.9908339 0.0200000 0.0200000 0.5328000 0.8400000 0.7968000 1.0000000 -0.5000000 0.0000000
0.0020360 -0.1454610 0.4844970 -0.9816006 -0.1909459 0.0000000 0.0793317 -0.4078226 -0.9096083 0.0200000 0.0200000 0.5328000 0.8400000 0.7968000 1.0000000 -0.5000000 0.0000000
0.1553020 0.0817020 0.0912530 0.6139421 -0.7893511 0.0000000 -0.1037586 -0.0807015 -0.9913231 0.0200000 0.0200000 0.5328000 0.8400000 0.7968000 1.0000000 -0.5000000 0.0000000
-0.1307810 -0.2247400 0.0588250 -0.7046310 0.7095739 0.0000000 0.3506951 0.3482521 -0.8693293 0.0200000 0.0200000 0.5328000 0.8400000 0.7968000 1.0000000 -0.5000000 0.0000000
-0.2126990 -0.0508960 0.0475600 -0.2238052 0.9746339 0.0000000 0.5135638 0.1179296 -0.8499087 0.0200000 0.0200000 0.5328000 0.8400000 0.7968000 1.0000000 -0.5000000 0.0000000
0.0998760 -0.2979090 0.0482210 -0.9754409 -0.2202612 0.0000000 -0.0765421 0.3389717 -0.9376777 0.0200000 0.0200000 0.5328000 0.8400000 0.7968000 1.0000000 -0.5000000 0.0000000
0.1654530 0.0379760 0.0469890 0.5233035 -0.8521464 0.0000000 -0.5280545 -0.3242785 -0.7848579 0.0200000 0.0200000 0.5328000 0.8400000 0.7968000 1.0000000 -0.5000000 0.0000000
-0.0027210 -0.0986930 0.5374840 -0.9559259 -0.2936082 0.0000000 0.2404368 -0.7828110 -0.5739312 0.0200000 0.0200000 0.5328000 0.8400000 0.7968000 1.0000000 -0.5000000 0.0000000
0.1012680 -0.0128900 0.4719980 0.0465254 -0.9989171 0.0000000 0.3464216 0.0161349 -0.9379401 0.0200000 0.0200000 0.5328000 0.8400000 0.7968000 1.0000000 -0.5000000 0.0000000
-0.0546200 -0.1755780 0.0000120 0.9998707 0.0000000 -0.0160825 0.0002207 -0.9999059 0.0137192 0.0200000 0.0200000 0.5328000 0.8400000 0.7968000 1.0000000 -0.5000000 0.0000000
-0.0584570 0.1054340 0.2976200 0.9999997 -0.0008067 0.0000000 -0.0000327 -0.0405310 -0.9991783 0.0200000 0.0200000 0.5328000 0.8400000 0.7968000 1.0000000 -0.5000000 0.0000000
-0.2175350 0.1318100 0.1693600 0.3685884 0.9295927 -0.0000000 -0.2675499 0.1060849 -0.9576863 0.0200000 0.0200000 0.5328000 0.8400000 0.7968000 1.0000000 -0.5000000 0.0000000
0.1599900 -0.2348800 0.2396570 -0.2226544 -0.9748974 0.0000000 0.5693616 -0.1300351 -0.8117378 0.0200000 0.0200000 0.5328000 0.8400000 0.7968000 1.0000000 -0.5000000 0.0000000
-0.0777320 0.1801460 0.2290430 0.9977174 -0.0675276 0.0000000 0.0472094 0.6975173 -0.7150111 0.0200000 0.0200000 0.5328000 0.8400000 0.7968000 1.0000000 -0.5000000 0.0000000
-0.0261090 0.1460020 0.0051170 0.9270601 -0.3749127 0.0000000 -0.3278053 -0.8105758 -0.4852943 0.0200000 0.0200000 0.5328000 0.8400000 0.7968000 1.0000000 -0.5000000 0.0000000
0.1352070 -0.0949000 0.0000350 0.9997693 -0.0000000 0.0214813 0.0001150 -0.9999857 -0.0053518 0.0200000 0.0200000 0.5328000 0.8400000 0.7968000 1.0000000 -0.5000000 0.0000000
-0.2086060 0.1646130 0.1266210 0.5356280 0.8444541 -0.0000000 0.0112067 -0.0071083 -0.9999119 0.0200000 0.0200000 0.5328000 0.8400000 0.7968000 1.0000000 -0.5000000 0.0000000
-0.1076180 0.1981190 0.2083800 0.9953425 0.0964013 -0.0000000 -0.0557285 0.5753963 -0.8159739 0.0200000 0.0200000 0.5328000 0.8400000 0.7968000 1.0000000 -0.5000000 0.0000000
0.1347340 0.0980850 0.0698140 0.6884353 -0.7252977 0.0000000 -0.2474889 -0.2349106 -0.9399820 0.0200000 0.0200000 0.5328000 0.8400000 0.7968000 1.0000000 -0.5000000 0.0000000
-0.1287120 0.2112640 0.1770590 0.9782152 0.2075935 -0.0000000 -0.0750741 0.3537619 -0.9323178 0.0200000 0.0200000 0.5328000 0.8400000 0.7968000 1.0000000 -0.5000000 0.0000000
0.2117710 -0.0548550 0.0581660 0.2349564 -0.9720059 0.0000000 -0.3803730 -0.0919450 -0.9202513 0.0200000 0.0200000 0.5328000 0.8400000 0.7968000 1.0000000 -0.5000000 0.0000000
0.0018010 -0.1905580 0.2659440 -0.7683956 0.6399752 0.0000000 -0.5867775 -0.7045230 -0.3991735 0.0200000 0.0200000 0.5328000 0.8400000 0.7968000 1.0000000 -0.5000000 0.0000000
-0.1637400 0.0519360 0.2616180 0.1012352 0.9948625 -0.0000000 -0.7750048 0.0788629 -0.6270153 0.0200000 0.0200000 0.5328000 0.8400000 0.7968000 1.0000000 -0.5000000 0.0000000
0.0583020 0.1684030 0.1026960 0.8322728 -0.5543663 0.0000000 -0.0495542 -0.0743960 -0.9959968 0.0200000 0.0200000 0.5328000 0.8400000 0.7968000 1.0000000 -0.5000000 0.0000000
-0.2209420 0.0871770 0.0520840 0.2386150 0.9711142 -0.0000000 0.4783000 -0.1175243 -0.8702972 0.0200000 0.0200000 0.5328000 0.8400000 0.7968000 1.0000000 -0.5000000 0.0000000
0.0726880 -0.1157920 0.4405830 -0.6574745 -0.7534768 0.0000000 0.0490114 -0.0427667 -0.9978822 0.0200000 0.0200000 0.5328000 0.8400000 0.7968000 1.0000000 -0.5000000 0.0000000
-0.0583910 0.1095050 0.3110900 0.9999699 -0.0077568 0.0000000 -0.0034846 -0.4492254 -0.8934117 0.0200000 0.0200000 0.5328000 0.8400000 0.7968000 1.0000000 -0.5000000 0.0000000
0.0684810 0.0646060 0.3628660 0.5530456 -0.8331510 0.0000000 -0.3249104 -0.2156755 -0.9208242 0.0200000 0.0200000 0.5328000 0.8400000 0.7968000 1.0000000 -0.5000000 0.0000000
0.0692140 0.0167550 0.3281810 0.2692047 -0.9630830 0.0000000 -0.5673211 -0.1585798 -0.8080837 0.0200000 0.0200000 0.5328000 0.8400000 0.7968000 1.0000000 -0.5000000 0.0000000
0.1591470 -0.2680320 0.2178900 -0.6062874 -0.7952456 0.0000000 0.3621790 -0.2761216 -0.8902714 0.0200000 0.0200000 0.5328000 0.8400000 0.7968000 1.0000000 -0.5000000 0.0000000
-0.0950580 0.0338260 -0.0000000 0.9999998 -0.0000000 0.0005480 0.0000001 -1.0000000 -0.0002020 0.0200000 0.0200000 0.5328000 0.8400000 0.7968000 1.0000000 -0.5000000 0.0000000
-0.2069800 -0.0480960 0.2044870 -0.2126005 0.9771392 0.0000000 -0.5389059 -0.1172521 -0.8341656 0.0200000 0.0200000 0.5328000 0.8400000 0.7968000 1.0000000 -0.5000000 0.0000000
0.0691050 -0.0751580 0.5096460 -0.4464663 -0.8948004 0.0000000 0.5532417 -0.2760434 -0.7859540 0.0200000 0.0200000 0.5328000 0.8400000 0.7968000 1.0000000 -0.5000000 0.0000000
0.1007740 -0.2660850 0.0038120 -0.9460467 -0.3240302 0.0000000 -0.2998292 0.8753890 -0.3792052 0.0200000 0.0200000 0.5328000 0.8400000 0.7968000 1.0000000 -0.5000000 0.0000000
-0.0185160 0.1960840 0.0549280 0.9501742 -0.3117193 0.0000000 -0.1438426 -0.4384569 -0.8871667 0.0200000 0.0200000 0.5328000 0.8400000 0.7968000 1.0000000 -0.5000000 0.0000000
0.0575420 -0.0967580 0.3490050 -0.6324451 -0.7746052 0.0000000 -0.4524981 0.3694529 -0.8116342 0.0200000 0.0200000 0.5328000 0.8400000 0.7968000 1.0000000 -0.5000000 0.0000000
0.1498780 0.0822860 0.0716350 0.6341582 -0.7732033 0.0000000 -0.2075734 -0.1702454 -0.9632911 0.0200000 0.0200000 0.5328000 0.8400000 0.7968000 1.0000000 -0.5000000 0.0000000
0.0304650 0.0927080 0.5020810 0.7922910 -0.6101434 0.0000000 0.3277024 0.4255322 -0.8435244 0.0200000 0.0200000 0.5328000 0.8400000 0.7968000 1.0000000 -0.5000000 0.0000000
-0.0116190 -0.2510970 0.2277180 -0.8782609 0.4781817 0.0000000 -0.3516372 -0.6458406 -0.6776734 0.0200000 0.0200000 0.5328000 0.8400000 0.7968000 1.0000000 -0.5000000 0.0000000
0.0096530 -0.2139470 0.2598290 -0.7877952 0.6159373 0.0000000 -0.5307654 -0.6788587 -0.5073843 0.0200000 0.0200000 0.5328000 0.8400000 0.7968000 1.0000000 -0.5000000 0.0000000
-0.0494420 0.1153190 0.3209920 0.9907504 -0.1356971 0.0000000 -0.0844478 -0.6165697 -0.7827582 0.0200000 0.0200000 0.5328000 0.8400000 0.7968000 1.0000000 -0.5000000 0.0000000
-0.0307470 -0.0796510 0.2938910 -0.9697831 -0.2439687 0.0000000 -0.1627078 0.6467687 -0.7451284 0.0200000 0.0200000 0.5328000 0.8400000 0.7968000 1.0000000 -0.5000000 0.0000000
-0.1806170 0.0220350 0.4039160 0.1669508 0.9859652 -0.0000000 0.1165608 -0.0197369 -0.9929874 0.0200000 0.0200000 0.5328000 0.8400000 0.7968000 1.0000000 -0.5000000 0.0000000
-0.1395520 0.0003300 0.2762610 -0.2829403 0.9591375 0.0000000 -0.6975022 -0.2057593 -0.6864064 0.0200000 0.0200000 0.5328000 0.8400000 0.7968000 1.0000000 -0.5000000 0.0000000
0.0384510 0.1025350 0.4774690 0.7909459 -0.6118861 0.0000000 0.2317152 0.2995233 -0.9255236 0.0200000 0.0200000 0.5328000 0.8400000 0.7968000 1.0000000 -0.5000000 0.0000000
0.0888310 0.0037830 0.2610320 0.4075460 -0.9131847 0.0000000 0.7880230 0.3516874 -0.5053076 0.0200000 0.0200000 0.5328000 0.8400000 0.7968000 1.0000000 -0.5000000 0.0000000
0.2078230 -0.0652960 0.1660370 0.1863766 -0.9824784 0.0000000 0.3186129 0.0604410 -0.9459560 0.0200000 0.0200000 0.5328000 0.8400000 0.7968000 1.0000000 -0.5000000 0.0000000
0.2053840 -0.0138080 0.1204680 0.2899639 -0.9570376 0.0000000 0.1113666 0.0337419 -0.9932064 0.0200000 0.0200000 0.5328000 0.8400000 0.7968000 1.0000000 -0.5000000 0.0000000
-0.1323780 0.0583090 -0.0000300 0.9999998 0.0000000 -0.0006120 -0.0000000 -1.0000000 -0.0000650 0.0200000 0.0200000 0.5328000 0.8400000 0.7968000 1.0000000 -0.5000000 0.0000000
-0.0550030 -0.2469490 0.0137360 -0.8018991 0.5974595 0.0000000 0.4292584 0.5761427 -0.6955550 0.0200000 0.0200000 0.5328000 0.8400000 0.7968000 1.0000000 -0.5000000 0.0000000
-0.0983080 0.2227150 0.1172640 0.9997891 0.0205372 -0.0000000 0.0013003 -0.0633026 -0.9979935 0.0200000 0.0200000 0.5328000 0.8400000 0.7968000 1.0000000 -0.5000000 0.0000000
-0.1408590 0.0677720 0.2748060 0.3875739 0.9218386 -0.0000000 -0.7218741 0.3035017 -0.6219200 0.0200000 0.0200000 0.5328000 0.8400000 0.7968000 1.0000000 -0.5000000 0.0000000
0.1290670 -0.0684090 0.0000290 0.9996787 -0.0000000 0.0253465 0.0002721 -0.9999424 -0.0107316 0.0200000 0.0200000 0.5328000 0.8400000 0.7968000 1.0000000 -0.5000000 0.0000000
-0.1463660 -0.0654220 0.0015150 -0.3316237 0.9434118 0.0000000 0.9261459 0.3255545 -0.1904417 0.0200000 0.0200000 0.5328000 0.8400000 0.7968000 1.0000000 -0.5000000 0.0000000
-0.1913870 -0.1516660 0.0721400 -0.4606686 0.8875722 0.0000000 0.2253076 0.1169394 -0.9672444 0.0200000 0.0200000 0.5328000 0.8400000 0.7968000 1.0000000 -0.5000000 0.0000000
-0.1940290 0.1843280 0.1357250 0.6625750 0.7489955 -0.0000000 -0.0325154 0.0287637 -0.9990573 0.0200000 0.0200000 0.5328000 0.8400000 0.7968000 1.0000000 -0.5000000 0.0000000
-0.1658120 0.1300840 0.3386950 0.4287858 0.9034062 -0.0000000 0.8649651 -0.4105405 -0.2886032 0.0200000 0.0200000 0.5328000 0.8400000 0.7968000 1.0000000 -0.5000000 0.0000000
0.1968180 -0.1802830 0.0369960 -0.2801398 -0.9599592 0.0000000 -0.4059532 0.1184672 -0.9061830 0.0200000 0.0200000 0.5328000 0.8400000 0.7968000 1.0000000 -0.5000000 0.0000000
-0.1571500 -0.2068670 0.0841300 -0.6491599 0.7606520 0.0000000 0.1002243 0.0855340 -0.9912815 0.0200000 0.0200000 0.5328000 0.8400000 0.7968000 1.0000000 -0.5000000 0.0000000
-0.0888280 -0.0626070 -0.0000300 0.9999999 0.0000000 -0.0003510 0.0000000 -1.0000000 0.0001320 0.0200000 0.0200000 0.5328000 0.8400000 0.7968000 1.0000000 -0.5000000 0.0000000
-0.1990540 0.0558030 0.2286200 0.0489176 0.9988028 -0.0000000 -0.6581421 0.0322333 -0.7522034 0.0200000 0.0200000 0.5328000 0.8400000 0.7968000 1.0000000 -0.5000000 0.0000000
0.1331910 -0.3069690 0.1535360 -0.9093833 -0.4159591 0.0000000 -0.0005041 0.0011022 -0.9999993 0.0200000 0.0200000 0.5328000 0.8400000 0.7968000 1.0000000 -0.5000000 0.0000000
0.1105790 -0.2116200 0.3180870 0.9665239 -0.2565765 0.0000000 0.1475928 0.5559820 -0.8179856 0.0200000 0.0200000 0.5328000 0.8400000 0.7968000 1.0000000 -0.5000000 0.0000000
-0.0680230 -0.2804920 0.0979350 -0.8811707 0.4727982 0.0000000 -0.0081969 -0.0152769 -0.9998497 0.0200000 0.0200000 0.5328000 0.8400000 0.7968000 1.0000000 -0.5000000 0.0000000
0.1490090 0.0885840 0.1387280 0.6089229 -0.7932294 0.0000000 0.1180500 0.0906211 -0.9888640 0.0200000 0.0200000 0.5328000 0.8400000 0.7968000 1.0000000 -0.5000000 0.0000000
0.1297860 0.0153000 0.0089440 0.5393836 -0.8420601 0.0000000 -0.7279193 -0.4662705 -0.5027180 0.0200000 0.0200000 0.5328000 0.8400000 0.7968000 1.0000000 -0.5000000 0.0000000
-0.1623440 0.1795640 0.3679530 -0.9999603 0.0000000 -0.0089127 0.0001130 -0.9999196 -0.0126835 0.0200000 0.0200000 0.5328000 0.8400000 0.7968000 1.0000000 -0.5000000 0.0000000
-0.0667470 0.1062630 0.2889240 0.9960277 0.0890441 -0.0000000 -0.0312750 0.3498357 -0.9362889 0.0200000 0.0200000 0.5328000 0.8400000 0.7968000 1.0000000 -0.5000000 0.0000000
-0.0512880 -0.2802780 0.1587810 -0.8847723 0.4660235 0.0000000 -0.1227981 -0.2331391 -0.9646589 0.0200000 0.0200000 0.5328000 0.8400000 0.7968000 1.0000000 -0.5000000 0.0000000
0.0203330 -0.1295420 0.0000020 1.0000000 -0.0000000 0.0001250 0.0000000 -1.0000000 -0.0000480 0.0200000 0.0200000 0.5328000 0.8400000 0.7968000 1.0000000 -0.5000000 0.0000000
0.0263310 -0.0384450 -0.0000010 0.9999999 0.0000000 -0.0003550 0.0000001 -1.0000000 0.0002530 0.0200000 0.0200000 0.5328000 0.8400000 0.7968000 1.0000000 -0.5000000 0.0000000
-0.1958080 0.1718280 0.0866150 0.6307259 0.7760057 -0.0000000 0.2207760 -0.1794435 -0.9586751 0.0200000 0.0200000 0.5328000 0.8400000 0.7968000 1.0000000 -0.5000000 0.0000000
0.0023170 0.1339170 0.0062750 0.8688856 -0.4950129 0.0000000 -0.4347793 -0.7631590 -0.4780746 0.0200000 0.0200000 0.5328000 0.8400000 0.7968000 1.0000000 -0.5000000 0.0000000
0.0338980 0.0609770 0.0000020 0.9998461 -0.0000000 0.0175417 0.0003054 -0.9998484 -0.0174093 0.0200000 0.0200000 0.5328000 0.8400000 0.7968000 1.0000000 -0.5000000 0.0000000
-0.1803870 0.0034550 0.0071730 -0.1242228 0.9922543 0.0000000 0.8681434 0.1086850 -0.4842671 0.0200000 0.0200000 0.5328000 0.8400000 0.7968000 1.0000000 -0.5000000 0.0000000
-0.2326860 0.0849770 0.0797420 0.2012163 0.9795468 -0.0000000 0.2565942 -0.0527090 -0.9650809 0.0200000 0.0200000 0.5328000 0.8400000 0.7968000 1.0000000 -0.5000000 0.0000000
-0.1014440 0.1546830 0.0021620 0.9948782 0.1010814 -0.0000000 0.0942818 -0.9279546 -0.3605707 0.0200000 0.0200000 0.5328000 0.8400000 0.7968000 1.0000000 -0.5000000 0.0000000
-0.2396550 0.0600950 0.1054960 0.0833331 0.9965217 -0.0000000 0.0669234 -0.0055964 -0.9977424 0.0200000 0.0200000 0.5328000 0.8400000 0.7968000 1.0000000 -0.5000000 0.0000000
-0.1909320 -0.1566770 0.1403130 -0.5056653 0.8627297 0.0000000 -0.1480996 -0.0868045 -0.9851556 0.0200000 0.0200000 0.5328000 0.8400000 0.7968000 1.0000000 -0.5000000 0.0000000
-0.1929870 0.0186770 0.2338650 -0.0990184 0.9950856 0.0000000 -0.6842129 -0.0680843 -0.7260973 0.0200000 0.0200000 0.5328000 0.8400000 0.7968000 1.0000000 -0.5000000 0.0000000
-0.1650840 -0.1993710 0.0894420 -0.6272176 0.7788440 0.0000000 0.0790690 0.0636758 -0.9948334 0.0200000 0.0200000 0.5328000 0.8400000 0.7968000 1.0000000 -0.5000000 0.0000000
-0.1497550 0.1406640 0.2430160 0.7039812 0.7102186 -0.0000000 -0.5587768 0.5538694 -0.6172497 0.0200000 0.0200000 0.5328000 0.8400000 0.7968000 1.0000000 -0.5000000 0.0000000
0.0883100 -0.0868620 0.3964920 -0.4729613 -0.8810832 0.0000000 -0.1872010 0.1004886 -0.9771683 0.0200000 0.0200000 0.5328000 0.8400000 0.7968000 1.0000000 -0.5000000 0.0000000
-0.1882700 -0.1672030 0.1010030 -0.5094763 0.8604847 0.0000000 0.0445783 0.0263939 -0.9986572 0.0200000 0.0200000 0.5328000 0.8400000 0.7968000 1.0000000 -0.5000000 0.0000000
0.0717820 -0.0894980 0.3602970 -0.5376128 -0.8431918 0.0000000 -0.3956273 0.2522490 -0.8830909 0.0200000 0.0200000 0.5328000 0.8400000 0.7968000 1.0000000 -0.5000000 0.0000000
-0.1650940 0.0672870 0.4452690 0.4255385 0.9049403 -0.0000000 -0.1679995 0.0790000 -0.9826165 0.0200000 0.0200000 0.5328000 0.8400000 0.7968000 1.0000000 -0.5000000 0.0000000
0.0791740 -0.1059210 0.4494860 -0.5886493 -0.8083885 0.0000000 0.0991270 -0.0721819 -0.9924533 0.0200000 0.0200000 0.5328000 0.8400000 0.7968000 1.0000000 -0.5000000 0.0000000
-0.2289840 -0.0536980 0.1433130 -0.1685349 0.9856957 0.0000000 -0.1565394 -0.0267652 -0.9873090 0.0200000 0.0200000 0.5328000 0.8400000 0.7968000 1.0000000 -0.5000000 0.0000000
-0.1040690 0.1186030 0.4823660 0.9036706 0.4282283 -0.0000000 -0.2057529 0.4341910 -0.8770085 0.0200000 0.0200000 0.5328000 0.8400000 0.7968000 1.0000000 -0.5000000 0.0000000
-0.2165080 -0.0927190 0.0778860 -0.2605124 0.9654705 0.0000000 0.2939655 0.0793206 -0.9525190 0.0200000 0.0200000 0.5328000 0.8400000 0.7968000 1.0000000 -0.5000000 0.0000000
-0.1233310 -0.0946530 0.4953710 -0.6754534 0.7374027 0.0000000 -0.3733756 -0.3420083 -0.8623346 0.0200000 0.0200000 0.5328000 0.8400000 0.7968000 1.0000000 -0.5000000 0.0000000
-0.0082610 -0.0285720 0.0000020 1.0000000 0.0000000 -0.0001330 0.0000000 -1.0000000 0.0001040 0.0200000 0.0200000 0.5328000 0.8400000 0.7968000 1.0000000 -0.5000000 0.0000000
-0.1141500 -0.2285180 0.1780850 -0.7683506 0.6400292 0.0000000 -0.2745015 -0.3295371 -0.9033572 0.0200000 0.0200000 0.5328000 0.8400000 0.7968000 1.0000000 -0.5000000 0.0000000
-0.1030920 0.1138790 0.4903630 0.8957541 0.4445499 -0.0000000 -0.2272601 0.4579220 -0.8594535 0.0200000 0.0200000 0.5328000 0.8400000 0.7968000 1.0000000 -0.5000000 0.0000000
-0.0289100 0.1834430 0.2118230 0.9364838 -0.3507107 0.0000000 0.1954287 0.5218426 -0.8303541 0.0200000 0.0200000 0.5328000 0.8400000 0.7968000 1.0000000 -0.5000000 0.0000000
0.0440290 -0.0862510 0.3281260 -0.6881990 -0.7255220 0.0000000 -0.4982283 0.4725979 -0.7269249 0.0200000 0.0200000 0.5328000 0.8400000 0.7968000 1.0000000 -0.5000000 0.0000000
0.0954380 0.0178480 0.3755570 0.2551662 -0.9668972 0.0000000 -0.3170426 -0.0836682 -0.9447135 0.0200000 0.0200000 0.5328000 0.8400000 0.7968000 1.0000000 -0.5000000 0.0000000
-0.0731730 0.2196210 0.0975540 0.9965655 -0.0828079 0.0000000 -0.0139580 -0.1679801 -0.9856916 0.0200000 0.0200000 0.5328000 0.8400000 0.7968000 1.0000000 -0.5000000 0.0000000
-0.0503740 0.1790460 0.0250040 0.9798097 -0.1999323 0.0000000 -0.1415278 -0.6935865 -0.7063339 0.0200000 0.0200000 0.5328000 0.8400000 0.7968000 1.0000000 -0.5000000 0.0000000
-0.2379510 -0.0130950 0.1202380 -0.1176614 0.9930538 0.0000000 -0.0263566 -0.0031229 -0.9996477 0.0200000 0.0200000 0.5328000 0.8400000 0.7968000 1.0000000 -0.5000000 0.0000000
-0.0986790 -0.1383470 0.4160300 -0.8704745 0.4922135 0.0000000 0.0360158 0.0636935 -0.9973194 0.0200000 0.0200000 0.5328000 0.8400000 0.7968000 1.0000000 -0.5000000 0.0000000
-0.0682090 0.1848300 0.2228820 0.9911317 -0.1328834 0.0000000 0.0868139 0.6475149 -0.7570917 0.0200000 0.0200000 0.5328000 0.8400000 0.7968000 1.0000000 -0.5000000 0.0000000
-0.1310340 -0.0296060 -0.0000030 0.9997600 0.0000000 -0.0219055 0.0001486 -0.9999770 0.0067834 0.0200000 0.0200000 0.5328000 0.8400000 0.7968000 1.0000000 -0.5000000 0.0000000
-0.1562860 -0.1686100 0.0375070 -0.5531588 0.8330759 0.0000000 0.5707035 0.3789447 -0.7284905 0.0200000 0.0200000 0.5328000 0.8400000 0.7968000 1.0000000 -0.5000000 0.0000000
0.0126370 -0.1285420 0.5066850 -0.9415147 -0.3369720 0.0000000 0.2005348 -0.5603030 -0.8036456 0.0200000 0.0200000 0.5328000 0.8400000 0.7968000 1.0000000 -0.5000000 0.0000000
0.1857260 -0.0040980 0.1816660 0.3151704 -0.9490351 0.0000000 0.4117939 0.1367549 -0.9009572 0.0200000 0.0200000 0.5328000 0.8400000 0.7968000 1.0000000 -0.5000000 0.0000000
-0.0677100 0.1083540 0.5158380 0.9826023 0.1857220 -0.0000000 -0.1176305 0.6223497 -0.7738500 0.0200000 0.0200000 0.5328000 0.8400000 0.7968000 1.0000000 -0.5000000 0.0000000
-0.0388030 -0.2433770 0.2224490 -0.8550832 0.5184909 0.0000000 -0.3807865 -0.6279844 -0.6787026 0.0200000 0.0200000 0.5328000 0.8400000 0.7968000 1.0000000 -0.5000000 0.0000000
-0.1751790 0.0367280 0.3943140 0.2890610 0.9573107 -0.0000000 0.1635336 -0.0493791 -0.9853012 0.0200000 0.0200000 0.5328000 0.8400000 0.7968000 1.0000000 -0.5000000 0.0000000
0.1924920 -0.2436210 0.1557880 -0.4341705 -0.9008307 0.0000000 0.0467333 -0.0225239 -0.9986534 0.0200000 0.0200000 0.5328000 0.8400000 0.7968000 1.0000000 -0.5000000 0.0000000
-0.0444970 -0.2645720 0.1988710 -0.8705059 0.4921579 0.0000000 -0.2743156 -0.4851966 -0.8302621 0.0200000 0.0200000 0.5328000 0.8400000 0.7968000 1.0000000 -0.5000000 0.0000000
-0.0153040 -0.0881740 0.5460160 -0.9824273 -0.1866454 0.0000000 0.1607812 -0.8462886 -0.5078829 0.0200000 0.0200000 0.5328000 0.8400000 0.7968000 1.0000000 -0.5000000 0.0000000
-0.0029240 0.0105940 0.5639810 0.5064151 -0.8622898 0.0000000 0.8270933 0.4857446 -0.2827876 0.0200000 0.0200000 0.5328000 0.8400000 0.7968000 1.0000000 -0.5000000 0.0000000
0.1888400 -0.1552950 0.2110380 -0.0183158 -0.9998323 0.0000000 0.6241295 -0.0114334 -0.7812373 0.0200000 0.0200000 0.5328000 0.8400000 0.7968000 1.0000000 -0.5000000 0.0000000
0.2169400 -0.0626930 0.0681010 0.1731218 -0.9849004 0.0000000 -0.2909387 -0.0511400 -0.9553740 0.0200000 0.0200000 0.5328000 0.8400000 0.7968000 1.0000000 -0.5000000 0.0000000
-0.0564870 -0.0903400 0.2812470 -0.9603989 0.2786288 0.0000000 -0.2681379 -0.9242379 -0.2718204 0.0200000 0.0200000 0.5328000 0.8400000 0.7968000 1.0000000 -0.5000000 0.0000000
-0.1479400 0.1367120 0.4010010 0.9498221 0.3127905 -0.0000000 0.2353332 -0.7146147 -0.6587443 0.0200000 0.0200000 0.5328000 0.8400000 0.7968000 1.0000000 -0.5000000 0.0000000
-0.0533980 -0.1865730 0.0000360 0.9997584 0.0000000 -0.0219802 0.0004280 -0.9998104 0.0194683 0.0200000 0.0200000 0.5328000 0.8400000 0.7968000 1.0000000 -0.5000000 0.0000000
0.0551400 0.0096120 -0.0000430 0.9999998 -0.0000000 0.0006250 0.0000003 -0.9999999 -0.0005140 0.0200000 0.0200000 0.5328000 0.8400000 0.7968000 1.0000000 -0.5000000 0.0000000
0.0507400 -0.1992210 0.2821920 -0.1245596 0.9922121 0.0000000 -0.8858521 -0.1112075 -0.4504431 0.0200000 0.0200000 0.5328000 0.8400000 0.7968000 1.0000000 -0.5000000 0.0000000
-0.2222260 -0.0075560 0.0489750 -0.1360693 0.9906993 0.0000000 0.4980445 0.0684048 -0.8644492 0.0200000 0.0200000 0.5328000 0.8400000 0.7968000 1.0000000 -0.5000000 0.0000000
0.1319770 -0.1052730 0.0000070 0.9999351 -0.0000000 0.0113950 0.0000253 -0.9999975 -0.0022159 0.0200000 0.0200000 0.5328000 0.8400000 0.7968000 1.0000000 -0.5000000 0.0000000
-0.1299060 -0.0257590 0.5322320 -0.2579684 0.9661534 0.0000000 -0.7153254 -0.1909959 -0.6721831 0.0200000 0.0200000 0.5328000 0.8400000 0.7968000 1.0000000 -0.5000000 0.0000000
0.1188720 -0.3022240 0.2033130 -0.9584569 -0.2852373 0.0000000 0.1084284 -0.3643420 -0.9249314 0.0200000 0.0200000 0.5328000 0.8400000 0.7968000 1.0000000 -0.5000000 0.0000000
-0.1644510 0.0397400 0.2612020 0.0074436 0.9999723 -0.0000000 -0.7725649 0.0057508 -0.6349098 0.0200000 0.0200000 0.5328000 0.8400000 0.7968000 1.0000000 -0.5000000 0.0000000
-0.1800730 -0.1392680 0.0440660 -0.4322014 0.9017771 0.0000000 0.5740668 0.2751372 -0.7711983 0.0200000 0.0200000 0.5328000 0.8400000 0.7968000 1.0000000 -0.5000000 0.0000000
-0.2363060 0.0245300 0.1522880 -0.0366070 0.9993297 0.0000000 -0.2131001 -0.0078062 -0.9769992 0.0200000 0.0200000 0.5328000 0.8400000 0.7968000 1.0000000 -0.5000000 0.0000000
0.1017850 -0.0723520 0.2651160 0.2105002 -0.9775938 0.0000000 0.9031019 0.1944602 -0.3828736 0.0200000 0.0200000 0.5328000 0.8400000 0.7968000 1.0000000 -0.5000000 0.0000000
-0.0542080 -0.2821480 0.1462550 -0.8867779 0.4621958 0.0000000 -0.0927835 -0.1780163 -0.9796435 0.0200000 0.0200000 0.5328000 0.8400000 0.7968000 1.0000000 -0.5000000 0.0000000
0.1012030 -0.1200050 -0.0000040 0.9999998 -0.0000000 0.0006660 -0.0000001 -1.0000000 0.0002080 0.0200000 0.0200000 0.5328000 0.8400000 0.7968000 1.0000000 -0.5000000 0.0000000
-0.2362920 0.0707650 0.1450360 0.1016533 0.9948199 -0.0000000 -0.1545503 0.0157923 -0.9878587 0.0200000 0.0200000 0.5328000 0.8400000 0.7968000 1.0000000 -0.5000000 0.0000000
0.0421560 -0.1309000 0.3750670 -0.8413988 -0.5404147 0.0000000 -0.1848203 0.2877560 -0.9397010 0.0200000 0.0200000 0.5328000 0.8400000 0.7968000 1.0000000 -0.5000000 0.0000000
0.0957920 -0.0195210 0.4846200 0.0107262 -0.9999425 0.0000000 0.4317173 0.0046310 -0.9019971 0.0200000 0.0200000 0.5328000 0.8400000 0.7968000 1.0000000 -0.5000000 0.0000000
0.0063290 0.0292610 0.5568940 0.6382111 -0.7698614 0.0000000 0.7007506 0.5809185 -0.4141042 0.0200000 0.0200000 0.5328000 0.8400000 0.7968000 1.0000000 -0.5000000 0.0000000
-0.0675730 -0.1277670 0.2686040 -0.7837842 0.6210332 0.0000000 -0.5722210 -0.7221800 -0.3886119 0.0200000 0.0200000 0.5328000 0.8400000 0.7968000 1.0000000 -0.5000000 0.0000000
-0.1656290 0.0933290 0.4026480 -0.3635184 0.9315870 0.0000000 -0.3634482 -0.1418226 -0.9207561 0.0200000 0.0200000 0.5328000 0.8400000 0.7968000 1.0000000 -0.5000000 0.0000000
0.0605650 -0.1836410 0.2852300 0.5627726 0.8266117 -0.0000000 -0.7860992 0.5351909 -0.3092228 0.0200000 0.0200000 0.5328000 0.8400000 0.7968000 1.0000000 -0.5000000 0.0000000
0.0861070 0.0671820 0.2388520 0.6211309 -0.7837069 0.0000000 0.6179227 0.4897377 -0.6150841 0.0200000 0.0200000 0.5328000 0.8400000 0.7968000 1.0000000 -0.5000000 0.0000000
-0.0717650 0.2215780 0.1139250 0.9945553 -0.1042106 0.0000000 -0.0066681 -0.0636386 -0.9979507 0.0200000 0.0200000 0.5328000 0.8400000 0.7968000 1.0000000 -0.5000000 0.0000000
0.0683120 0.0791210 0.2435880 0.6553819 -0.7552976 0.0000000 0.5923134 0.5139583 -0.6204931 0.0200000 0.0200000 0.5328000 0.8400000 0.7968000 1.0000000 -0.5000000 0.0000000
-0.2101170 0.0643140 0.0319060 0.1441898 0.9895500 -0.0000000 0.6588147 -0.0959975 -0.7461553 0.0200000 0.0200000 0.5328000 0.8400000 0.7968000 1.0000000 -0.5000000 0.0000000
-0.0774280 -0.0047940 -0.0000010 0.9999999 -0.0000000 0.0004740 0.0000001 -1.0000000 -0.0002180 0.0200000 0.0200000 0.5328000 0.8400000 0.7968000 1.0000000 -0.5000000 0.0000000
-0.1775440 0.1754260 0.0589740 0.7288123 0.6847136 -0.0000000 0.3194258 -0.3399982 -0.8845159 0.0200000 0.0200000 0.5328000 0.8400000 0.7968000 1.0000000 -0.5000000 0.0000000
0.0204300 -0.2997310 0.1911440 -0.9466834 0.3221655 0.0000000 -0.1343521 -0.3947937 -0.9088935 0.0200000 0.0200000 0.5328000 0.8400000 0.7968000 1.0000000 -0.5000000 0.0000000
0.0477840 0.0332290 0.3095150 0.3843150 -0.9232020 0.0000000 -0.5899398 -0.2455830 -0.7691944 0.0200000 0.0200000 0.5328000 0.8400000 0.7968000 1.0000000 -0.5000000 0.0000000
-0.1039640 0.1250030 0.4707820 0.9300346 0.3674720 -0.0000000 -0.1704354 0.4313548 -0.8859372 0.0200000 0.0200000 0.5328000 0.8400000 0.7968000 1.0000000 -0.5000000 0.0000000
0.1764270 -0.1918150 0.0105640 -0.3337592 -0.9426584 0.0000000 -0.6627918 0.2346692 -0.7110818 0.0200000 0.0200000 0.5328000 0.8400000 0.7968000 1.0000000 -0.5000000 0.0000000
0.0025680 -0.0665480 0.2816240 -0.8310841 -0.5561468 0.0000000 0.5373701 -0.8030250 -0.2576514 0.0200000 0.0200000 0.5328000 0.8400000 0.7968000 1.0000000 -0.5000000 0.0000000
-0.1030190 0.0984610 0.5129980 0.8471822 0.5313025 -0.0000000 -0.3291706 0.5248751 -0.7849540 0.0200000 0.0200000 0.5328000 0.8400000 0.7968000 1.0000000 -0.5000000 0.0000000
0.0844590 0.0682780 0.0075840 0.6929091 -0.7210250 0.0000000 -0.6429381 -0.6178671 -0.4526266 0.0200000 0.0200000 0.5328000 0.8400000 0.7968000 1.0000000 -0.5000000 0.0000000
-0.0516120 -0.2885580 0.1102040 -0.9058721 0.4235513 0.0000000 -0.0175583 -0.0375529 -0.9991404 0.0200000 0.0200000 0.5328000 0.8400000 0.7968000 1.0000000 -0.5000000 0.0000000
-0.2356660 0.0171970 0.1532300 -0.0538656 0.9985482 0.0000000 -0.2165261 -0.0116803 -0.9762070 0.0200000 0.0200000 0.5328000 0.8400000 0.7968000 1.0000000 -0.5000000 0.0000000
0.0922690 -0.0203160 -0.0000130 0.9999213 -0.0000000 0.0125435 0.0001127 -0.9999596 -0.0089843 0.0200000 0.0200000 0.5328000 0.8400000 0.7968000 1.0000000 -0.5000000 0.0000000
-0.0386390 -0.1116390 0.5290890 -0.9902292 0.1394495 0.0000000 -0.1047615 -0.7439105 -0.6600168 0.0200000 0.0200000 0.5328000 0.8400000 0.7968000 1.0000000 -0.5000000 0.0000000
-0.0359380 0.0756870 0.5461060 0.9941405 -0.1080959 0.0000000 0.0916425 0.8428207 -0.5303347 0.0200000 0.0200000 0.5328000 0.8400000 0.7968000 1.0000000 -0.5000000 0.0000000
0.0671510 0.0916740 0.2374690 0.6908092 -0.7230371 0.0000000 0.5475567 0.5231505 -0.6530660 0.0200000 0.0200000 0.5328000 0.8400000 0.7968000 1.0000000 -0.5000000 0.0000000
0.1751040 -0.2404890 0.0488790 -0.5344096 -0.8452256 0.0000000 -0.2974451 0.1880652 -0.9360331 0.0200000 0.0200000 0.5328000 0.8400000 0.7968000 1.0000000 -0.5000000 0.0000000
-0.0505480 -0.1448770 -0.0000340 0.9999999 0.0000000 -0.0005420 0.0000003 -0.9999998 0.0005940 0.0200000 0.0200000 0.5328000 0.8400000 0.7968000 1.0000000 -0.5000000 0.0000000
-0.0732960 -0.2771150 0.1091750 -0.8710156 0.4912553 0.0000000 -0.0356509 -0.0632105 -0.9973632 0.0200000 0.0200000 0.5328000 0.8400000 0.7968000 1.0000000 -0.5000000 0.0000000
-0.0099840 0.2048840 0.1008360 0.9353682 -0.3536755 0.0000000 -0.0348102 -0.0920627 -0.9951446 0.0200000 0.0200000 0.5328000 0.8400000 0.7968000 1.0000000 -0.5000000 0.0000000
0.0083760 0.1457160 0.2327560 0.8527702 -0.5222863 0.0000000 0.3558638 0.5810415 -0.7319506 0.0200000 0.0200000 0.5328000 0.8400000 0.7968000 1.0000000 -0.5000000 0.0000000
0.2109830 -0.1367600 0.0485890 -0.1185674 -0.9929460 0.0000000 -0.3749521 0.0447729 -0.9259624 0.0200000 0.0200000 0.5328000 0.8400000 0.7968000 1.0000000 -0.5000000 0.0000000
0.1376150 -0.0356770 0.0010860 0.4683985 -0.8835173 0.0000000 -0.8697945 -0.4611233 -0.1755642 0.0200000 0.0200000 0.5328000 0.8400000 0.7968000 1.0000000 -0.5000000 0.0000000
0.1354580 0.0555470 0.0313590 0.6106009 -0.7919385 0.0000000 -0.5652032 -0.4357833 -0.7004558 0.0200000 0.0200000 0.5328000 0.8400000 0.7968000 1.0000000 -0.5000000 0.0000000
-0.1719930 -0.1861730 0.1385610 -0.6052474 0.7960374 0.0000000 -0.1398646 -0.1063426 -0.9844436 0.0200000 0.0200000 0.5328000 0.8400000 0.7968000 1.0000000 -0.5000000 0.0000000
0.1777730 -0.2488280 0.2037870 -0.4363168 -0.8997931 0.0000000 0.3769000 -0.1827618 -0.9080444 0.0200000 0.0200000 0.5328000 0.8400000 0.7968000 1.0000000 -0.5000000 0.0000000
-0.2297150 -0.0310460 0.0779460 -0.1771446 0.9841848 0.0000000 0.2675771 0.0481615 -0.9623320 0.0200000 0.0200000 0.5328000 0.8400000 0.7968000 1.0000000 -0.5000000 0.0000000
-0.0353080 0.1165880 0.5065850 0.9955618 -0.0941099 0.0000000 0.0526175 0.5566260 -0.8290952 0.0200000 0.0200000 0.5328000 0.8400000 0.7968000 1.0000000 -0.5000000 0.0000000
-0.1217920 0.0543940 0.5310690 0.5193028 0.8545903 -0.0000000 -0.6328012 0.3845298 -0.6720859 0.0200000 0.0200000 0.5328000 0.8400000 0.7968000 1.0000000 -0.5000000 0.0000000
-0.1226810 -0.1047810 0.4830370 -0.7106166 0.7035794 0.0000000 -0.3040877 -0.3071292 -0.9017773 0.0200000 0.0200000 0.5328000 0.8400000 0.7968000 1.0000000 -0.5000000 0.0000000
0.0742720 -0.0304860 0.5175880 -0.0828291 -0.9965638 0.0000000 0.6562589 -0.0545447 -0.7525617 0.0200000 0.0200000 0.5328000 0.8400000 0.7968000 1.0000000 -0.5000000 0.0000000
-0.0577400 -0.1409380 0.3634910 -0.9764369 0.2158030 0.0000000 0.0883387 0.3997033 -0.9123780 0.0200000 0.0200000 0.5328000 0.8400000 0.7968000 1.0000000 -0.5000000 0.0000000
0.0494800 -0.0828640 0.3304910 -0.6505320 -0.7594788 0.0000000 -0.5097908 0.4366616 -0.7412422 0.0200000 0.0200000 0.5328000 0.8400000 0.7968000 1.0000000 -0.5000000 0.0000000
-0.0443260 -0.2599600 0.2045610 -0.8643712 0.5028543 0.0000000 -0.3037505 -0.5221258 -0.7969443 0.0200000 0.0200000 0.5328000 0.8400000 0.7968000 1.0000000 -0.5000000 0.0000000
0.0960360 0.1041510 0.2082350 0.7270276 -0.6866082 0.0000000 0.4201592 0.4448932 -0.7909085 0.0200000 0.0200000 0.5328000 0.8400000 0.7968000 1.0000000 -0.5000000 0.0000000
-0.1457130 0.1611130 0.0179050 0.8291895 0.5589676 -0.0000000 0.3995825 -0.5927528 -0.6992696 0.0200000 0.0200000 0.5328000 0.8400000 0.7968000 1.0000000 -0.5000000 0.0000000
-0.1510340 -0.2094840 0.1411560 -0.6930054 0.7209324 0.0000000 -0.1436581 -0.1380932 -0.9799452 0.0200000 0.0200000 0.5328000 0.8400000 0.7968000 1.0000000 -0.5000000 0.0000000
-0.1936600 0.1382340 0.4119990 -0.6080802 0.7938756 0.0000000 -0.0463004 -0.0354645 -0.9982978 0.0200000 0.0200000 0.5328000 0.8400000 0.7968000 1.0000000 -0.5000000 0.0000000
0.0452460 0.1692090 0.0691800 0.8394631 -0.5434167 0.0000000 -0.1821234 -0.2813419 -0.9421666 0.0200000 0.0200000 0.5328000 0.8400000 0.7968000 1.0000000 -0.5000000 0.0000000
0.0066600 0.1083110 0.5010300 0.9062605 -0.4227196 0.0000000 0.2230758 0.4782480 -0.8494210 0.0200000 0.0200000 0.5328000 0.8400000 0.7968000 1.0000000 -0.5000000 0.0000000
-0.1614340 0.1233480 0.0059870 0.4981281 0.8671035 -0.0000000 0.7261286 -0.4171417 -0.5465620 0.0200000 0.0200000 0.5328000 0.8400000 0.7968000 1.0000000 -0.5000000 0.0000000
0.0268440 -0.1338930 0.0000030 1.0000000 -0.0000000 0.0001010 0.0000000 -1.0000000 -0.0000360 0.0200000 0.0200000 0.5328000 0.8400000 0.7968000 1.0000000 -0.5000000 0.0000000
0.2043910 -0.2010180 0.1689910 -0.2232798 -0.9747544 0.0000000 0.2100694 -0.0481190 -0.9765016 0.0200000 0.0200000 0.5328000 0.8400000 0.7968000 1.0000000 -0.5000000 0.0000000
-0.1134190 0.2163210 0.4393950 0.7345345 -0.6785714 0.0000000 0.2238980 0.2423634 -0.9439966 0.0200000 0.0200000 0.5328000 0.8400000 0.7968000 1.0000000 -0.5000000 0.0000000
-0.1717090 0.1953780 0.4598110 0.8111072 0.5848975 -0.0000000 -0.3560570 0.4937624 -0.7933613 0.0200000 0.0200000 0.5328000 0.8400000 0.7968000 1.0000000 -0.5000000 0.0000000
0.1922940 -0.2148930 0.0584210 -0.4031518 -0.9151331 0.0000000 -0.2837189 0.1249892 -0.9507267 0.0200000 0.0200000 0.5328000 0.8400000 0.7968000 1.0000000 -0.5000000 0.0000000
-0.0573310 0.1131260 0.3178650 0.9996623 -0.0259868 0.0000000 -0.0154137 -0.5929359 -0.8051021 0.0200000 0.0200000 0.5328000 0.8400000 0.7968000 1.0000000 -0.5000000 0.0000000
-0.1042880 0.1795960 0.3587240 -0.9969987 -0.0774183 0.0000000 0.0722348 -0.9302446 -0.3597597 0.0200000 0.0200000 0.5328000 0.8400000 0.7968000 1.0000000 -0.5000000 0.0000000
-0.0001500 0.1252880 0.3641090 0.9323892 -0.3614559 0.0000000 -0.1229571 -0.3171726 -0.9403633 0.0200000 0.0200000 0.5328000 0.8400000 0.7968000 1.0000000 -0.5000000 0.0000000
-0.1041660 0.0761740 0.5298470 0.7570267 0.6533839 -0.0000000 -0.4844352 0.5612785 -0.6710358 0.0200000 0.0200000 0.5328000 0.8400000 0.7968000 1.0000000 -0.5000000 0.0000000
0.0944750 0.1452250 0.1267060 0.8167612 -0.5769759 0.0000000 0.0264555 0.0374501 -0.9989482 0.0200000 0.0200000 0.5328000 0.8400000 0.7968000 1.0000000 -0.5000000 0.0000000
0.1245670 -0.2069000 0.2861990 0.5350362 -0.8448291 0.0000000 0.3982143 0.2521919 -0.8819437 0.0200000 0.0200000 0.5328000 0.8400000 0.7968000 1.0000000 -0.5000000 0.0000000
0.1638180 -0.2681300 0.0710610 -0.6793030 -0.7338579 0.0000000 -0.1993745 0.1845530 -0.9623877 0.0200000 0.0200000 0.5328000 0.8400000 0.7968000 1.0000000 -0.5000000 0.0000000
0.0544230 0.0730320 0.3492300 0.6122364 -0.7906748 0.0000000 -0.3631870 -0.2812234 -0.8882616 0.0200000 0.0200000 0.5328000 0.8400000 0.7968000 1.0000000 -0.5000000 0.0000000
0.0010760 -0.1534510 0.4015440 -0.9842228 -0.1769335 0.0000000 -0.0315488 0.1754958 -0.9839745 0.0200000 0.0200000 0.5328000 0.8400000 0.7968000 1.0000000 -0.5000000 0.0000000
-0.1075280 -0.1336250 0.4258080 -0.8351711 0.5499902 0.0000000 0.0073017 0.0110877 -0.9999119 0.0200000 0.0200000 0.5328000 0.8400000 0.7968000 1.0000000 -0.5000000 0.0000000
-0.1372590 -0.0779660 0.3517550 -0.5675363 0.8233484 0.0000000 0.3799710 0.2619150 -0.8871429 0.0200000 0.0200000 0.5328000 0.8400000 0.7968000 1.0000000 -0.5000000 0.0000000
-0.0744560 -0.0192000 -0.0000010 0.9999999 -0.0000000 0.0005170 0.0000001 -1.0000000 -0.0002440 0.0200000 0.0200000 0.5328000 0.8400000 0.7968000 1.0000000 -0.5000000 0.0000000
-0.0816280 -0.1065120 0.2716630 -0.7486778 0.6629340 0.0000000 -0.6067130 -0.6851852 -0.4030143 0.0200000 0.0200000 0.5328000 0.8400000 0.7968000 1.0000000 -0.5000000 0.0000000
-0.1448420 -0.2190640 0.0729150 -0.6758862 0.7370060 0.0000000 0.1596783 0.1464362 -0.9762475 0.0200000 0.0200000 0.5328000 0.8400000 0.7968000 1.0000000 -0.5000000 0.0000000
0.0603900 0.0923240 0.4008400 0.6684449 -0.7437617 0.0000000 -0.1143095 -0.1027340 -0.9881190 0.0200000 0.0200000 0.5328000 0.8400000 0.7968000 1.0000000 -0.5000000 0.0000000
-0.1759930 0.0907050 0.3444990 -0.2860816 0.9582053 0.0000000 0.3633724 0.1084884 -0.9253057 0.0200000 0.0200000 0.5328000 0.8400000 0.7968000 1.0000000 -0.5000000 0.0000000
0.1806730 -0.2607620 0.1092010 -0.5741577 -0.8187448 0.0000000 -0.1130105 0.0792504 -0.9904282 0.0200000 0.0200000 0.5328000 0.8400000 0.7968000 1.0000000 -0.5000000 0.0000000
0.2105270 -0.0732940 0.0477030 0.1628043 -0.9866584 0.0000000 -0.4964518 -0.0819174 -0.8641905 0.0200000 0.0200000 0.5328000 0.8400000 0.7968000 1.0000000 -0.5000000 0.0000000
0.0199490 -0.2247310 0.0000210 0.9999995 0.0000000 -0.0009670 0.0000064 -0.9999784 0.0065680 0.0200000 0.0200000 0.5328000 0.8400000 0.7968000 1.0000000 -0.5000000 0.0000000
-0.1836180 -0.0878840 0.2172790 -0.3553153 0.9347465 0.0000000 -0.6423978 -0.2441879 -0.7264278 0.0200000 0.0200000 0.5328000 0.8400000 0.7968000 1.0000000 -0.5000000 0.0000000
0.1060200 -0.1304270 0.2692960 0.3104420 -0.9505923 0.0000000 0.8789234 0.2870366 -0.3809246 0.0200000 0.0200000 0.5328000 0.8400000 0.7968000 1.0000000 -0.5000000 0.0000000
-0.0142390 0.1993960 0.0690620 0.9435567 -0.3312111 0.0000000 -0.1137461 -0.3240408 -0.9391801 0.0200000 0.0200000 0.5328000 0.8400000 0.7968000 1.0000000 -0.5000000 0.0000000
-0.1043870 -0.1357360 0.0005550 -0.4717929 0.8817094 0.0000000 0.8773464 0.4694583 -0.0993592 0.0200000 0.0200000 0.5328000 0.8400000 0.7968000 1.0000000 -0.5000000 0.0000000
0.2143610 -0.1141020 0.1609810 0.0323237 -0.9994775 0.0000000 0.2756619 0.0089151 -0.9612133 0.0200000 0.0200000 0.5328000 0.8400000 0.7968000 1.0000000 -0.5000000 0.0000000
-0.0813780 -0.1953750 0.0030040 -0.6409669 0.7675685 0.0000000 0.7244142 0.6049304 -0.3305802 0.0200000 0.0200000 0.5328000 0.8400000 0.7968000 1.0000000 -0.5000000 0.0000000
-0.1854310 -0.1694070 0.0865260 -0.5103375 0.8599742 0.0000000 0.1247908 0.0740551 -0.9894155 0.0200000 0.0200000 0.5328000 0.8400000 0.7968000 1.0000000 -0.5000000 0.0000000
0.0504800 -0.3069540 0.1918610 -0.9797834 0.2000610 0.0000000 -0.0737081 -0.3609796 -0.9296563 0.0200000 0.0200000 0.5328000 0.8400000 0.7968000 1.0000000 -0.5000000 0.0000000
0.1920500 0.0053820 0.1567150 0.3414840 -0.9398876 0.0000000 0.2537940 0.0922095 -0.9628531 0.0200000 0.0200000 0.5328000 0.8400000 0.7968000 1.0000000 -0.5000000 0.0000000
0.0910730 -0.2474800 0.0004490 -0.9134729 -0.4068995 0.0000000 -0.4062566 0.9120296 -0.0561932 0.0200000 0.0200000 0.5328000 0.8400000 0.7968000 1.0000000 -0.5000000 0.0000000
0.0962130 -0.1028650 -0.0000110 0.9999999 -0.0000000 0.0003800 -0.0000000 -1.0000000 0.0001000 0.0200000 0.0200000 0.5328000 0.8400000 0.7968000 1.0000000 -0.5000000 0.0000000
-0.1336600 0.0689930 0.5094130 0.5561468 0.8310841 -0.0000000 -0.4891049 0.3273004 -0.8084867 0.0200000 0.0200000 0.5328000 0.8400000 0.7968000 1.0000000 -0.5000000 0.0000000
0.0826020 -0.0395930 0.3425380 -0.2038728 -0.9789974 0.0000000 -0.5291491 0.1101934 -0.8413434 0.0200000 0.0200000 0.5328000 0.8400000 0.7968000 1.0000000 -0.5000000 0.0000000
0.1152520 -0.3034310 0.2034470 -0.9694976 -0.2451007 0.0000000 0.0935725 -0.3701269 -0.9242566 0.0200000 0.0200000 0.5328000 0.8400000 0.7968000 1.0000000 -0.5000000 0.0000000
-0.1409630 0.0560130 0.2778540 0.2885204 0.9574738 -0.0000000 -0.7149799 0.2154485 -0.6651209 0.0200000 0.0200000 0.5328000 0.8400000 0.7968000 1.0000000 -0.5000000 0.0000000
0.0104840 -0.2430790 0.2426960 -0.8530615 0.5218104 0.0000000 -0.4110980 -0.6720676 -0.6158925 0.0200000 0.0200000 0.5328000 0.8400000 0.7968000 1.0000000 -0.5000000 0.0000000
0.1348860 -0.0022150 0.2347990 0.3813887 -0.9244147 0.0000000 0.7423153 0.3062594 -0.5959641 0.0200000 0.0200000 0.5328000 0.8400000 0.7968000 1.0000000 -0.5000000 0.0000000
-0.2061490 -0.1225710 0.1521310 -0.4280274 0.9037658 0.0000000 -0.2022475 -0.0957853 -0.9746390 0.0200000 0.0200000 0.5328000 0.8400000 0.7968000 1.0000000 -0.5000000 0.0000000
-0.1590030 0.0405270 0.3380950 -0.0033459 0.9999944 0.0000000 0.5282429 0.0017675 -0.8490915 0.0200000 0.0200000 0.5328000 0.8400000 0.7968000 1.0000000 -0.5000000 0.0000000
0.0116250 -0.0306070 0.5600160 -0.3470424 -0.9378495 0.0000000 0.8782217 -0.3249777 -0.3508792 0.0200000 0.0200000 0.5328000 0.8400000 0.7968000 1.0000000 -0.5000000 0.0000000
-0.1604910 -0.1950720 0.0609720 -0.6177729 0.7863566 0.0000000 0.3725349 0.2926687 -0.8806604 0.0200000 0.0200000 0.5328000 0.8400000 0.7968000 1.0000000 -0.5000000 0.0000000
-0.1473180 -0.1936730 0.0461590 -0.6209703 0.7838341 0.0000000 0.4804840 0.3806497 -0.7900892 0.0200000 0.0200000 0.5328000 0.8400000 0.7968000 1.0000000 -0.5000000 0.0000000
0.1320070 -0.0269940 0.0010370 0.4861074 -0.8738991 0.0000000 -0.8615631 -0.4792455 -0.1674301 0.0200000 0.0200000 0.5328000 0.8400000 0.7968000 1.0000000 -0.5000000 0.0000000
0.0550100 -0.0846910 0.5189320 -0.5786451 -0.8155794 0.0000000 0.5619914 -0.3987271 -0.7246947 0.0200000 0.0200000 0.5328000 0.8400000 0.7968000 1.0000000 -0.5000000 0.0000000
