ply
format ascii 1.0
comment 2D Gaussian splats: pk, tu, tv, scales, diffuse albedo, opacity
element vertex 271
property float x
property float y
property float z
property float tu_x
property float tu_y
property float tu_z
property float tv_x
property float tv_y
property float tv_z
property float su
property float sv
property float albedo_r
property float albedo_g
property float albedo_b
property float opacity
property float beta
property float shape
end_header
0.1330740 0.2343130 0.1025910 0.7840245 -0.6207299 0.0000000 -0.2275665 -0.2874321 -0.9303743 0.0200000 0.0200000 1.0000000 1.0000000 0.5000000 1.0000000 -0.5000000 0.0000000
-0.1663670 -0.2714140 0.3192210 -0.7308851 0.6825005 0.0000000 -0.4603020 -0.4929342 -0.7383346 0.0200000 0.0200000 1.0000000 1.0000000 0.5000000 1.0000000 -0.5000000 0.0000000
-0.2091420 0.2921540 0.5165030 0.8994728 0.4369767 -0.0000000 0.4066037 -0.8369530 -0.3663101 0.0200000 0.0200000 1.0000000 1.0000000 0.5000000 1.0000000 -0.5000000 0.0000000
-0.3550780 0.1120960 0.1371510 0.0763771 0.9970790 -0.0000000 0.1559621 -0.0119468 -0.9876908 0.0200000 0.0200000 1.0000000 1.0000000 0.5000000 1.0000000 -0.5000000 0.0000000
-0.1841210 -0.1031080 0.5184610 -0.6467610 0.7626927 0.0000000 0.3807278 0.3228560 -0.8664931 0.0200000 0.0200000 1.0000000 1.0000000 0.5000000 1.0000000 -0.5000000 0.0000000
-0.3423650 0.1859750 0.2183640 0.2398671 0.9708057 -0.0000000 -0.1326907 0.0327853 -0.9906151 0.0200000 0.0200000 1.0000000 1.0000000 0.5000000 1.0000000 -0.5000000 0.0000000
0.2149180 0.1780030 0.1506080 0.6554136 -0.7552702 0.0000000 -0.0718292 -0.0623324 -0.9954673 0.0200000 0.0200000 1.0000000 1.0000000 0.5000000 1.0000000 -0.5000000 0.0000000
0.0841960 -0.0084410 0.8057050 -0.0671273 -0.9977444 0.0000000 0.7839218 -0.0527415 -0.6186153 0.0200000 0.0200000 1.0000000 1.0000000 0.5000000 1.0000000 -0.5000000 0.0000000
0.1609600 -0.0157070 0.6871070 -0.0628310 -0.9980242 0.0000000 0.2296513 -0.0144578 -0.9731656 0.0200000 0.0200000 1.0000000 1.0000000 0.5000000 1.0000000 -0.5000000 0.0000000
-0.2471410 0.2948700 0.6923820 -0.9993147 0.0370149 0.0000000 -0.0359556 -0.9707155 -0.2375258 0.0200000 0.0200000 1.0000000 1.0000000 0.5000000 1.0000000 -0.5000000 0.0000000
-0.2604230 0.0732610 0.3766180 -0.0673399 0.9977301 0.0000000 -0.7454779 -0.0503146 -0.6646286 0.0200000 0.0200000 1.0000000 1.0000000 0.5000000 1.0000000 -0.5000000 0.0000000
0.3359210 -0.1390550 0.1837260 0.0230310 -0.9997348 0.0000000 0.1002214 0.0023088 -0.9949625 0.0200000 0.0200000 1.0000000 1.0000000 0.5000000 1.0000000 -0.5000000 0.0000000
0.1447630 -0.1677020 0.4107630 0.4015213 -0.9158497 0.0000000 0.8701665 0.3814932 -0.3118865 0.0200000 0.0200000 1.0000000 1.0000000 0.5000000 1.0000000 -0.5000000 0.0000000
-0.1560080 -0.1290060 0.3941580 -0.6093565 0.7928964 0.0000000 -0.6779471 -0.5210157 -0.5185849 0.0200000 0.0200000 1.0000000 1.0000000 0.5000000 1.0000000 -0.5000000 0.0000000
0.3170080 -0.0305280 0.0949330 0.2652986 -0.9641663 0.0000000 -0.3926858 -0.1080508 -0.9133033 0.0200000 0.0200000 1.0000000 1.0000000 0.5000000 1.0000000 -0.5000000 0.0000000
0.0712460 -0.4102980 0.0436410 -0.9980811 0.0619206 0.0000000 0.0294941 0.4754078 -0.8792710 0.0200000 0.0200000 1.0000000 1.0000000 0.5000000 1.0000000 -0.5000000 0.0000000
-0.0851070 0.1993180 0.7615240 0.9946888 0.1029280 -0.0000000 -0.0592815 0.5728922 -0.8174841 0.0200000 0.0200000 1.0000000 1.0000000 0.5000000 1.0000000 -0.5000000 0.0000000
0.0972390 -0.1705520 0.0000040 1.0000000 0.0000000 -0.0000550 0.0000000 -1.0000000 0.0000990 0.0200000 0.0200000 1.0000000 1.0000000 0.5000000 1.0000000 -0.5000000 0.0000000
0.0450260 -0.1873180 0.5827850 -0.9199925 -0.3919360 0.0000000 -0.0939141 0.2204449 -0.9708677 0.0200000 0.0200000 1.0000000 1.0000000 0.5000000 1.0000000 -0.5000000 0.0000000
-0.2878980 -0.2056020 0.1456350 -0.4787441 0.8779545 0.0000000 0.0737008 0.0401887 -0.9964703 0.0200000 0.0200000 1.0000000 1.0000000 0.5000000 1.0000000 -0.5000000 0.0000000
0.0729260 -0.4448280 0.1757530 -0.9958201 0.0913363 0.0000000 0.0053578 0.0584148 -0.9982780 0.0200000 0.0200000 1.0000000 1.0000000 0.5000000 1.0000000 -0.5000000 0.0000000
0.0840440 0.2637550 0.0830640 0.8194952 -0.5730860 0.0000000 -0.2553694 -0.3651703 -0.8952302 0.0200000 0.0200000 1.0000000 1.0000000 0.5000000 1.0000000 -0.5000000 0.0000000
0.0571710 -0.4198980 0.3013020 -0.9560452 0.2932194 0.0000000 -0.1405204 -0.4581685 -0.8776877 0.0200000 0.0200000 1.0000000 1.0000000 0.5000000 1.0000000 -0.5000000 0.0000000
0.0139370 -0.3007250 0.3845160 -0.8123101 0.5832258 0.0000000 -0.4951072 -0.6895797 -0.5285345 0.0200000 0.0200000 1.0000000 1.0000000 0.5000000 1.0000000 -0.5000000 0.0000000
-0.1904970 0.0108590 0.4224150 -0.3540849 0.9352133 0.0000000 -0.5492569 -0.2079564 -0.8093646 0.0200000 0.0200000 1.0000000 1.0000000 0.5000000 1.0000000 -0.5000000 0.0000000
0.2398470 -0.0564370 0.0055960 0.3928672 -0.9195952 0.0000000 -0.8471307 -0.3619091 -0.3890906 0.0200000 0.0200000 1.0000000 1.0000000 0.5000000 1.0000000 -0.5000000 0.0000000
-0.1480030 0.2838870 0.5884620 0.3069315 0.9517316 -0.0000000 0.7134458 -0.2300848 -0.6618580 0.0200000 0.0200000 1.0000000 1.0000000 0.5000000 1.0000000 -0.5000000 0.0000000
-0.0832410 0.2513620 0.5751110 0.7590840 -0.6509927 0.0000000 0.1762342 0.2054962 -0.9626592 0.0200000 0.0200000 1.0000000 1.0000000 0.5000000 1.0000000 -0.5000000 0.0000000
0.1842150 -0.4299600 0.1496070 -0.9360903 -0.3517597 0.0000000 -0.0646759 0.1721132 -0.9829517 0.0200000 0.0200000 1.0000000 1.0000000 0.5000000 1.0000000 -0.5000000 0.0000000
0.1464720 0.1843520 0.0520580 0.7335400 -0.6796463 0.0000000 -0.4451920 -0.4804942 -0.7555987 0.0200000 0.0200000 1.0000000 1.0000000 0.5000000 1.0000000 -0.5000000 0.0000000
-0.0474950 -0.1879700 0.4070020 -0.8099322 0.5865235 0.0000000 -0.5597710 -0.7729895 -0.2985694 0.0200000 0.0200000 1.0000000 1.0000000 0.5000000 1.0000000 -0.5000000 0.0000000
-0.2108780 -0.0969940 0.0034350 -0.3483199 0.9373757 0.0000000 0.9100805 0.3381773 -0.2395614 0.0200000 0.0200000 1.0000000 1.0000000 0.5000000 1.0000000 -0.5000000 0.0000000
-0.2523700 0.2876780 0.0752050 0.7532556 0.6577279 -0.0000000 0.3437147 -0.3936355 -0.8525909 0.0200000 0.0200000 1.0000000 1.0000000 0.5000000 1.0000000 -0.5000000 0.0000000
-0.0049680 0.2886740 0.0508250 0.9223498 -0.3863558 0.0000000 -0.2512015 -0.5996950 -0.7597787 0.0200000 0.0200000 1.0000000 1.0000000 0.5000000 1.0000000 -0.5000000 0.0000000
-0.0683210 -0.3914120 0.2516530 -0.8844806 0.4665770 0.0000000 -0.1475321 -0.2796736 -0.9486922 0.0200000 0.0200000 1.0000000 1.0000000 0.5000000 1.0000000 -0.5000000 0.0000000
-0.2875170 0.2955410 0.6790550 0.6101671 0.7922728 -0.0000000 -0.2237434 0.1723155 -0.9592947 0.0200000 0.0200000 1.0000000 1.0000000 0.5000000 1.0000000 -0.5000000 0.0000000
0.2973290 -0.0914690 0.0404850 0.2097461 -0.9777559 0.0000000 -0.6394836 -0.1371807 -0.7564669 0.0200000 0.0200000 1.0000000 1.0000000 0.5000000 1.0000000 -0.5000000 0.0000000
-0.0976620 -0.0472550 0.8405130 -0.7568280 0.6536141 0.0000000 -0.6054546 -0.7010635 -0.3767422 0.0200000 0.0200000 1.0000000 1.0000000 0.5000000 1.0000000 -0.5000000 0.0000000
0.1268550 -0.3514540 0.4296160 -0.7030344 0.7111558 0.0000000 -0.1995780 -0.1972988 -0.9598134 0.0200000 0.0200000 1.0000000 1.0000000 0.5000000 1.0000000 -0.5000000 0.0000000
-0.0385080 -0.1679610 0.5117260 -0.9985524 -0.0537878 0.0000000 -0.0315208 0.5851737 -0.8102951 0.0200000 0.0200000 1.0000000 1.0000000 0.5000000 1.0000000 -0.5000000 0.0000000
0.2084140 -0.0539430 0.0006840 0.4143760 -0.9101058 0.0000000 -0.9060201 -0.4125158 -0.0946483 0.0200000 0.0200000 1.0000000 1.0000000 0.5000000 1.0000000 -0.5000000 0.0000000
0.2025400 -0.4055840 0.3321010 -0.8867402 -0.4622682 0.0000000 0.2081690 -0.3993176 -0.8928668 0.0200000 0.0200000 1.0000000 1.0000000 0.5000000 1.0000000 -0.5000000 0.0000000
0.1636280 -0.1723930 -0.0000020 0.9999996 -0.0000000 0.0009110 -0.0000003 -1.0000000 0.0002840 0.0200000 0.0200000 1.0000000 1.0000000 0.5000000 1.0000000 -0.5000000 0.0000000
0.2990940 0.0453850 0.1637120 0.3714881 -0.9284377 0.0000000 0.0255868 0.0102378 -0.9996202 0.0200000 0.0200000 1.0000000 1.0000000 0.5000000 1.0000000 -0.5000000 0.0000000
-0.2463750 0.1009190 0.5470860 0.0876721 0.9961494 -0.0000000 0.0503593 -0.0044322 -0.9987213 0.0200000 0.0200000 1.0000000 1.0000000 0.5000000 1.0000000 -0.5000000 0.0000000
0.2747820 -0.3743950 0.2299320 -0.5692911 -0.8221360 0.0000000 0.0083118 -0.0057555 -0.9999489 0.0200000 0.0200000 1.0000000 1.0000000 0.5000000 1.0000000 -0.5000000 0.0000000
0.0859360 -0.0805270 0.7873010 -0.4865697 -0.8736418 0.0000000 0.6388936 -0.3558281 -0.6820567 0.0200000 0.0200000 1.0000000 1.0000000 0.5000000 1.0000000 -0.5000000 0.0000000
-0.0675640 0.1704820 -0.0000300 1.0000000 0.0000000 -0.0000760 -0.0000000 -1.0000000 -0.0000660 0.0200000 0.0200000 1.0000000 1.0000000 0.5000000 1.0000000 -0.5000000 0.0000000
-0.0416430 -0.4164360 0.1981150 -0.9323687 0.3615088 0.0000000 -0.0421241 -0.1086424 -0.9931880 0.0200000 0.0200000 1.0000000 1.0000000 0.5000000 1.0000000 -0.5000000 0.0000000
-0.2546850 0.3127890 0.2730130 0.7911568 0.6116134 -0.0000000 -0.2495440 0.3227993 -0.9129778 0.0200000 0.0200000 1.0000000 1.0000000 0.5000000 1.0000000 -0.5000000 0.0000000
0.0775280 -0.4026320 0.0280350 -0.9987865 0.0492497 0.0000000 0.0269206 0.5459498 -0.8373853 0.0200000 0.0200000 1.0000000 1.0000000 0.5000000 1.0000000 -0.5000000 0.0000000
-0.2275170 -0.0724610 0.3705420 -0.4102493 0.9119734 0.0000000 -0.7230527 -0.3252637 -0.6094246 0.0200000 0.0200000 1.0000000 1.0000000 0.5000000 1.0000000 -0.5000000 0.0000000
-0.1084990 -0.2196550 0.0000440 0.9996342 0.0000000 -0.0270441 0.0005247 -0.9998118 0.0193939 0.0200000 0.0200000 1.0000000 1.0000000 0.5000000 1.0000000 -0.5000000 0.0000000
-0.1215050 -0.0272630 -0.0000200 1.0000000 -0.0000000 0.0001940 0.0000000 -1.0000000 -0.0001240 0.0200000 0.0200000 1.0000000 1.0000000 0.5000000 1.0000000 -0.5000000 0.0000000
-0.0044270 -0.1651590 0.7693130 -0.9846390 -0.1746023 0.0000000 0.1123918 -0.6338141 -0.7652763 0.0200000 0.0200000 1.0000000 1.0000000 0.5000000 1.0000000 -0.5000000 0.0000000
0.0793460 -0.1401310 0.5327320 -0.7405609 -0.6719892 0.0000000 -0.3785249 0.4171507 -0.8262591 0.0200000 0.0200000 1.0000000 1.0000000 0.5000000 1.0000000 -0.5000000 0.0000000
-0.2460250 0.2012680 0.5731590 0.9960268 0.0890539 -0.0000000 0.0734450 -0.8214482 -0.5655340 0.0200000 0.0200000 1.0000000 1.0000000 0.5000000 1.0000000 -0.5000000 0.0000000
0.3083290 -0.1300100 0.2828120 0.0874630 -0.9961678 0.0000000 0.4641676 0.0407537 -0.8848093 0.0200000 0.0200000 1.0000000 1.0000000 0.5000000 1.0000000 -0.5000000 0.0000000
0.0530850 -0.0860250 0.4699410 -0.7040544 -0.7101461 0.0000000 -0.5450442 0.5403687 -0.6410371 0.0200000 0.0200000 1.0000000 1.0000000 0.5000000 1.0000000 -0.5000000 0.0000000
-0.0795240 0.2001830 0.7607060 0.9974293 0.0716580 -0.0000000 -0.0409651 0.5702053 -0.8204802 0.0200000 0.0200000 1.0000000 1.0000000 0.5000000 1.0000000 -0.5000000 0.0000000
0.0504140 -0.0517220 0.4215830 -0.6324003 -0.7746417 0.0000000 0.7664694 -0.6257286 -0.1448735 0.0200000 0.0200000 1.0000000 1.0000000 0.5000000 1.0000000 -0.5000000 0.0000000
0.1395650 -0.4476980 0.2415150 -0.9969507 -0.0780338 0.0000000 0.0052937 -0.0676321 -0.9976963 0.0200000 0.0200000 1.0000000 1.0000000 0.5000000 1.0000000 -0.5000000 0.0000000
-0.1551970 0.0631360 -0.0000110 0.9999999 -0.0000000 0.0004650 0.0000001 -1.0000000 -0.0002320 0.0200000 0.0200000 1.0000000 1.0000000 0.5000000 1.0000000 -0.5000000 0.0000000
-0.0922390 0.0861270 0.0000060 1.0000000 0.0000000 -0.0000200 0.0000000 -1.0000000 0.0000250 0.0200000 0.0200000 1.0000000 1.0000000 0.5000000 1.0000000 -0.5000000 0.0000000
-0.2053460 -0.1127650 0.7065990 -0.6154662 0.7881633 0.0000000 -0.2687283 -0.2098463 -0.9400796 0.0200000 0.0200000 1.0000000 1.0000000 0.5000000 1.0000000 -0.5000000 0.0000000
0.0315700 0.1733840 0.7602440 0.8471572 -0.5313424 0.0000000 0.3016823 0.4809937 -0.8231846 0.0200000 0.0200000 1.0000000 1.0000000 0.5000000 1.0000000 -0.5000000 0.0000000
0.1124740 -0.1455410 0.6192780 -0.6541708 -0.7563468 0.0000000 -0.0785875 0.0679710 -0.9945873 0.0200000 0.0200000 1.0000000 1.0000000 0.5000000 1.0000000 -0.5000000 0.0000000
-0.3490540 0.1644100 0.2064070 0.1829392 0.9831242 -0.0000000 -0.1021476 0.0190076 -0.9945876 0.0200000 0.0200000 1.0000000 1.0000000 0.5000000 1.0000000 -0.5000000 0.0000000
0.1526410 0.0811740 0.6521390 0.3594751 -0.9331547 0.0000000 0.0419313 0.0161530 -0.9989899 0.0200000 0.0200000 1.0000000 1.0000000 0.5000000 1.0000000 -0.5000000 0.0000000
0.1620250 -0.0390310 0.6681680 -0.1699373 -0.9854549 0.0000000 0.1272292 -0.0219401 -0.9916307 0.0200000 0.0200000 1.0000000 1.0000000 0.5000000 1.0000000 -0.5000000 0.0000000
-0.2272270 0.3159320 0.6943730 -0.3268112 -0.9450897 0.0000000 0.9412202 -0.3254731 -0.0903977 0.0200000 0.0200000 1.0000000 1.0000000 0.5000000 1.0000000 -0.5000000 0.0000000
-0.0795620 0.0986670 0.8370360 0.9618323 0.2736397 -0.0000000 -0.2558947 0.8994593 -0.3542468 0.0200000 0.0200000 1.0000000 1.0000000 0.5000000 1.0000000 -0.5000000 0.0000000
0.0758230 -0.3574820 0.3758000 -0.8457559 0.5335701 0.0000000 -0.3779557 -0.5990932 -0.7058590 0.0200000 0.0200000 1.0000000 1.0000000 0.5000000 1.0000000 -0.5000000 0.0000000
-0.1680170 0.2265680 0.5420110 0.8536834 0.5207923 -0.0000000 -0.4050166 0.6639037 -0.6286441 0.0200000 0.0200000 1.0000000 1.0000000 0.5000000 1.0000000 -0.5000000 0.0000000
-0.1122860 -0.3612480 0.2611280 -0.8327939 0.5535832 0.0000000 -0.2363785 -0.3556007 -0.9042530 0.0200000 0.0200000 1.0000000 1.0000000 0.5000000 1.0000000 -0.5000000 0.0000000
-0.2453940 0.0334970 0.7329790 0.0152455 0.9998838 -0.0000000 -0.4492538 0.0068499 -0.8933779 0.0200000 0.0200000 1.0000000 1.0000000 0.5000000 1.0000000 -0.5000000 0.0000000
-0.2664060 0.0750450 0.6469800 0.2150862 0.9765951 -0.0000000 -0.0606427 0.0133560 -0.9980702 0.0200000 0.0200000 1.0000000 1.0000000 0.5000000 1.0000000 -0.5000000 0.0000000
0.0291990 -0.2117400 0.0000020 1.0000000 -0.0000000 0.0002400 0.0000000 -1.0000000 -0.0000660 0.0200000 0.0200000 1.0000000 1.0000000 0.5000000 1.0000000 -0.5000000 0.0000000
0.2926610 -0.3027910 0.0972120 -0.4179434 -0.9084731 0.0000000 -0.2539373 0.1168239 -0.9601396 0.0200000 0.0200000 1.0000000 1.0000000 0.5000000 1.0000000 -0.5000000 0.0000000
-0.3549850 0.0329470 0.1939920 -0.0791127 0.9968657 0.0000000 -0.0859647 -0.0068223 -0.9962748 0.0200000 0.0200000 1.0000000 1.0000000 0.5000000 1.0000000 -0.5000000 0.0000000
0.0366180 -0.1544920 0.4180380 -0.9997227 0.0000000 -0.0235495 0.0007977 -0.9994261 -0.0338636 0.0200000 0.0200000 1.0000000 1.0000000 0.5000000 1.0000000 -0.5000000 0.0000000
-0.0361940 0.0234530 0.8532210 0.5657860 -0.8245521 0.0000000 0.8217398 0.5638562 -0.0825224 0.0200000 0.0200000 1.0000000 1.0000000 0.5000000 1.0000000 -0.5000000 0.0000000
-0.1460780 -0.3642320 0.1557330 -0.8099807 0.5864566 0.0000000 -0.0578258 -0.0798657 -0.9951270 0.0200000 0.0200000 1.0000000 1.0000000 0.5000000 1.0000000 -0.5000000 0.0000000
-0.2345710 0.0858150 0.3986160 0.0111327 0.9999380 -0.0000000 -0.7784797 0.0086671 -0.6276099 0.0200000 0.0200000 1.0000000 1.0000000 0.5000000 1.0000000 -0.5000000 0.0000000
-0.2589290 0.0962070 0.6235400 0.3126972 0.9498529 -0.0000000 0.0669722 -0.0220477 -0.9975112 0.0200000 0.0200000 1.0000000 1.0000000 0.5000000 1.0000000 -0.5000000 0.0000000
0.1086370 -0.4432300 0.2734830 -0.9971206 0.0758316 0.0000000 -0.0193550 -0.2545020 -0.9668786 0.0200000 0.0200000 1.0000000 1.0000000 0.5000000 1.0000000 -0.5000000 0.0000000
-0.0132080 0.0611770 -0.0000020 0.9999999 0.0000000 -0.0004420 0.0000002 -0.9999999 0.0003550 0.0200000 0.0200000 1.0000000 1.0000000 0.5000000 1.0000000 -0.5000000 0.0000000
0.3309510 -0.1857890 0.2097480 -0.0827665 -0.9965690 0.0000000 0.1479745 -0.0122895 -0.9889148 0.0200000 0.0200000 1.0000000 1.0000000 0.5000000 1.0000000 -0.5000000 0.0000000
-0.2536160 -0.2230990 0.2678990 -0.5665487 0.8240282 0.0000000 -0.3202578 -0.2201886 -0.9213859 0.0200000 0.0200000 1.0000000 1.0000000 0.5000000 1.0000000 -0.5000000 0.0000000
0.1450040 0.2419810 0.2046890 0.8124751 -0.5829958 0.0000000 0.0675418 0.0941277 -0.9932664 0.0200000 0.0200000 1.0000000 1.0000000 0.5000000 1.0000000 -0.5000000 0.0000000
-0.1260770 0.3576120 0.1492140 0.9997543 -0.0221644 0.0000000 -0.0037316 -0.1683177 -0.9857257 0.0200000 0.0200000 1.0000000 1.0000000 0.5000000 1.0000000 -0.5000000 0.0000000
0.0100080 0.1783160 0.7687520 0.9021124 -0.4315012 0.0000000 0.2621930 0.5481505 -0.7942203 0.0200000 0.0200000 1.0000000 1.0000000 0.5000000 1.0000000 -0.5000000 0.0000000
0.0965860 0.2759540 0.2027830 0.8369669 -0.5472536 0.0000000 0.0618358 0.0945714 -0.9935958 0.0200000 0.0200000 1.0000000 1.0000000 0.5000000 1.0000000 -0.5000000 0.0000000
-0.0803440 0.2524080 0.5497230 0.9259880 -0.3775529 0.0000000 -0.0882458 -0.2164322 -0.9723013 0.0200000 0.0200000 1.0000000 1.0000000 0.5000000 1.0000000 -0.5000000 0.0000000
-0.1802050 -0.3315510 0.1917200 -0.7667649 0.6419280 0.0000000 -0.1010979 -0.1207586 -0.9875204 0.0200000 0.0200000 1.0000000 1.0000000 0.5000000 1.0000000 -0.5000000 0.0000000
-0.3406880 -0.0078020 0.2466230 -0.1284541 0.9917155 0.0000000 -0.2849356 -0.0369069 -0.9578359 0.0200000 0.0200000 1.0000000 1.0000000 0.5000000 1.0000000 -0.5000000 0.0000000
-0.2126910 0.3454140 0.1428520 0.9425830 0.3339719 -0.0000000 0.0799869 -0.2257505 -0.9708959 0.0200000 0.0200000 1.0000000 1.0000000 0.5000000 1.0000000 -0.5000000 0.0000000
-0.1856710 0.2141130 0.6799650 0.6952538 0.7187643 -0.0000000 -0.4844128 0.4685678 -0.7387750 0.0200000 0.0200000 1.0000000 1.0000000 0.5000000 1.0000000 -0.5000000 0.0000000
0.1253450 0.2570240 0.1666050 0.8097080 -0.5868329 0.0000000 -0.0307454 -0.0424222 -0.9986266 0.0200000 0.0200000 1.0000000 1.0000000 0.5000000 1.0000000 -0.5000000 0.0000000
-0.0252050 -0.3568290 0.0063510 -0.8966001 0.4428412 0.0000000 0.3882801 0.7861328 -0.4808678 0.0200000 0.0200000 1.0000000 1.0000000 0.5000000 1.0000000 -0.5000000 0.0000000
-0.1611990 0.2287980 0.5631560 0.8507607 0.5255533 -0.0000000 0.2646155 -0.4283570 -0.8639959 0.0200000 0.0200000 1.0000000 1.0000000 0.5000000 1.0000000 -0.5000000 0.0000000
0.1171310 0.0231050 -0.0000350 0.9999642 -0.0000000 0.0084652 0.0000554 -0.9999786 -0.0065488 0.0200000 0.0200000 1.0000000 1.0000000 0.5000000 1.0000000 -0.5000000 0.0000000
-0.2530340 0.1597520 0.5715280 -0.2154395 0.9765172 0.0000000 -0.0928726 -0.0204896 -0.9954672 0.0200000 0.0200000 1.0000000 1.0000000 0.5000000 1.0000000 -0.5000000 0.0000000
0.1307120 0.2522930 0.2043400 0.8158737 -0.5782301 0.0000000 0.0648161 0.0914545 -0.9936976 0.0200000 0.0200000 1.0000000 1.0000000 0.5000000 1.0000000 -0.5000000 0.0000000
0.0524210 0.1995020 0.3655000 0.7682306 -0.6401733 0.0000000 0.4797944 0.5757703 -0.6620316 0.0200000 0.0200000 1.0000000 1.0000000 0.5000000 1.0000000 -0.5000000 0.0000000
-0.1443790 -0.1802720 0.6243250 -0.8706266 0.4919444 0.0000000 0.0354259 0.0626956 -0.9974038 0.0200000 0.0200000 1.0000000 1.0000000 0.5000000 1.0000000 -0.5000000 0.0000000
0.2190990 -0.3753390 0.0481780 -0.7620317 -0.6475397 0.0000000 -0.2951182 0.3472983 -0.8901062 0.0200000 0.0200000 1.0000000 1.0000000 0.5000000 1.0000000 -0.5000000 0.0000000
-0.3146070 0.0580870 0.3152400 -0.0709210 0.9974819 0.0000000 -0.5444653 -0.0387115 -0.8378896 0.0200000 0.0200000 1.0000000 1.0000000 0.5000000 1.0000000 -0.5000000 0.0000000
0.1652200 -0.0295210 0.3878620 0.2646160 -0.9643539 0.0000000 0.8508736 0.2334773 -0.4706405 0.0200000 0.0200000 1.0000000 1.0000000 0.5000000 1.0000000 -0.5000000 0.0000000
0.0283780 -0.4302410 0.1066360 -0.9879005 0.1550889 0.0000000 0.0367452 0.2340632 -0.9715267 0.0200000 0.0200000 1.0000000 1.0000000 0.5000000 1.0000000 -0.5000000 0.0000000
-0.0374170 -0.2022830 0.4051870 -0.7931770 0.6089912 0.0000000 -0.5785785 -0.7535662 -0.3120655 0.0200000 0.0200000 1.0000000 1.0000000 0.5000000 1.0000000 -0.5000000 0.0000000
0.1303770 -0.2563770 0.4398240 0.9620408 0.2729055 -0.0000000 -0.2368730 0.8350195 -0.4966222 0.0200000 0.0200000 1.0000000 1.0000000 0.5000000 1.0000000 -0.5000000 0.0000000
-0.1569580 -0.0869950 -0.0000260 0.9999167 0.0000000 -0.0129052 0.0000690 -0.9999857 0.0053486 0.0200000 0.0200000 1.0000000 1.0000000 0.5000000 1.0000000 -0.5000000 0.0000000
0.1505840 -0.0790800 0.6717110 -0.3454029 -0.9384545 0.0000000 0.1220582 -0.0449241 -0.9915057 0.0200000 0.0200000 1.0000000 1.0000000 0.5000000 1.0000000 -0.5000000 0.0000000
0.0794440 0.1535540 0.0038670 0.7436247 -0.6685973 0.0000000 -0.6440011 -0.7162684 -0.2687418 0.0200000 0.0200000 1.0000000 1.0000000 0.5000000 1.0000000 -0.5000000 0.0000000
-0.3545550 0.1332130 0.1642950 0.1227997 0.9924315 -0.0000000 0.0468051 -0.0057915 -0.9988873 0.0200000 0.0200000 1.0000000 1.0000000 0.5000000 1.0000000 -0.5000000 0.0000000
-0.0368300 0.1014930 -0.0000030 0.9999999 0.0000000 -0.0005120 0.0000002 -0.9999999 0.0004390 0.0200000 0.0200000 1.0000000 1.0000000 0.5000000 1.0000000 -0.5000000 0.0000000
0.1459760 -0.4360210 0.1239260 -0.9843241 -0.1763690 0.0000000 -0.0393555 0.2196451 -0.9747857 0.0200000 0.0200000 1.0000000 1.0000000 0.5000000 1.0000000 -0.5000000 0.0000000
-0.2011200 -0.0177770 0.4060070 -0.3834059 0.9235800 0.0000000 -0.7407567 -0.3075104 -0.5972577 0.0200000 0.0200000 1.0000000 1.0000000 0.5000000 1.0000000 -0.5000000 0.0000000
0.0708660 -0.2695370 0.4200390 -0.2323844 0.9726240 0.0000000 -0.8794853 -0.2101312 -0.4270251 0.0200000 0.0200000 1.0000000 1.0000000 0.5000000 1.0000000 -0.5000000 0.0000000
0.2607260 -0.2983440 0.0257210 -0.4379445 -0.8990020 0.0000000 -0.5018788 0.2444878 -0.8296646 0.0200000 0.0200000 1.0000000 1.0000000 0.5000000 1.0000000 -0.5000000 0.0000000
-0.0336770 -0.0475810 0.0000040 1.0000000 -0.0000000 0.0001470 0.0000000 -1.0000000 -0.0000720 0.0200000 0.0200000 1.0000000 1.0000000 0.5000000 1.0000000 -0.5000000 0.0000000
-0.1310960 0.2476400 0.6434400 0.8137253 -0.5812496 0.0000000 0.3810825 0.5334997 -0.7550856 0.0200000 0.0200000 1.0000000 1.0000000 0.5000000 1.0000000 -0.5000000 0.0000000
0.1617870 0.2326660 0.1798320 0.8148009 -0.5797409 0.0000000 -0.0047782 -0.0067156 -0.9999660 0.0200000 0.0200000 1.0000000 1.0000000 0.5000000 1.0000000 -0.5000000 0.0000000
0.1772280 -0.3784950 0.4043020 -0.9815538 -0.1911861 0.0000000 0.0572857 -0.2941059 -0.9540546 0.0200000 0.0200000 1.0000000 1.0000000 0.5000000 1.0000000 -0.5000000 0.0000000
-0.2478240 -0.1852930 0.3106620 -0.5192684 0.8546112 0.0000000 -0.5197268 -0.3157900 -0.7938266 0.0200000 0.0200000 1.0000000 1.0000000 0.5000000 1.0000000 -0.5000000 0.0000000
-0.2609020 0.0413370 0.5638970 0.0327261 0.9994644 -0.0000000 0.2798600 -0.0091636 -0.9599971 0.0200000 0.0200000 1.0000000 1.0000000 0.5000000 1.0000000 -0.5000000 0.0000000
-0.1711040 0.2176530 0.5527130 0.8490495 0.5283133 -0.0000000 0.0191265 -0.0307381 -0.9993445 0.0200000 0.0200000 1.0000000 1.0000000 0.5000000 1.0000000 -0.5000000 0.0000000
-0.2349870 -0.0514150 0.7218040 -0.3770662 0.9261863 0.0000000 -0.3742386 -0.1523589 -0.9147307 0.0200000 0.0200000 1.0000000 1.0000000 0.5000000 1.0000000 -0.5000000 0.0000000
-0.3177290 0.2246190 0.2689890 0.3760507 0.9265991 -0.0000000 -0.3295135 0.1337297 -0.9346321 0.0200000 0.0200000 1.0000000 1.0000000 0.5000000 1.0000000 -0.5000000 0.0000000
-0.2471910 -0.0612350 0.6617540 -0.3969903 0.9178228 0.0000000 -0.0884387 -0.0382528 -0.9953468 0.0200000 0.0200000 1.0000000 1.0000000 0.5000000 1.0000000 -0.5000000 0.0000000
0.2191570 0.1534290 0.0930200 0.6569402 -0.7539427 0.0000000 -0.3139741 -0.2735781 -0.9091618 0.0200000 0.0200000 1.0000000 1.0000000 0.5000000 1.0000000 -0.5000000 0.0000000
0.1091050 -0.0855380 0.5188540 -0.5064128 -0.8622912 0.0000000 -0.4878587 0.2865133 -0.8245629 0.0200000 0.0200000 1.0000000 1.0000000 0.5000000 1.0000000 -0.5000000 0.0000000
-0.1851500 -0.1571910 0.3680010 -0.5695367 0.8219659 0.0000000 -0.6741310 -0.4671025 -0.5721561 0.0200000 0.0200000 1.0000000 1.0000000 0.5000000 1.0000000 -0.5000000 0.0000000
0.1768800 0.1142370 0.0280060 0.6341818 -0.7731840 0.0000000 -0.6097562 -0.5001348 -0.6148679 0.0200000 0.0200000 1.0000000 1.0000000 0.5000000 1.0000000 -0.5000000 0.0000000
-0.0592310 0.2880730 0.0330840 0.9684859 -0.2490685 0.0000000 -0.1818183 -0.7069880 -0.6834545 0.0200000 0.0200000 1.0000000 1.0000000 0.5000000 1.0000000 -0.5000000 0.0000000
0.1501940 0.1370020 0.0240260 0.6750614 -0.7377615 0.0000000 -0.5941444 -0.5436498 -0.5928215 0.0200000 0.0200000 1.0000000 1.0000000 0.5000000 1.0000000 -0.5000000 0.0000000
0.3147760 0.0037940 0.1463700 0.3106816 -0.9505140 0.0000000 0.0103844 0.0033942 -0.9999403 0.0200000 0.0200000 1.0000000 1.0000000 0.5000000 1.0000000 -0.5000000 0.0000000
0.1153640 -0.0156110 0.7758530 -0.0671622 -0.9977421 0.0000000 0.6548840 -0.0440830 -0.7544426 0.0200000 0.0200000 1.0000000 1.0000000 0.5000000 1.0000000 -0.5000000 0.0000000
-0.2232230 0.1753670 0.6491920 0.3560153 0.9344801 -0.0000000 -0.3534186 0.1346443 -0.9257247 0.0200000 0.0200000 1.0000000 1.0000000 0.5000000 1.0000000 -0.5000000 0.0000000
0.1223010 0.0459780 0.7596460 0.2460234 -0.9692639 0.0000000 0.5555617 0.1410155 -0.8194302 0.0200000 0.0200000 1.0000000 1.0000000 0.5000000 1.0000000 -0.5000000 0.0000000
-0.2939910 0.2642240 0.6684700 -0.7388111 0.6739126 0.0000000 -0.4241409 -0.4649862 -0.7771051 0.0200000 0.0200000 1.0000000 1.0000000 0.5000000 1.0000000 -0.5000000 0.0000000
-0.0781090 0.2528430 0.0042720 0.9654806 -0.2604749 0.0000000 -0.2406973 -0.8921726 -0.3822210 0.0200000 0.0200000 1.0000000 1.0000000 0.5000000 1.0000000 -0.5000000 0.0000000
0.0997550 -0.2684610 0.0000100 1.0000000 -0.0000000 0.0000390 -0.0000000 -0.9999996 0.0009420 0.0200000 0.0200000 1.0000000 1.0000000 0.5000000 1.0000000 -0.5000000 0.0000000
-0.0289100 -0.1412880 0.7953690 -0.9994260 -0.0338781 0.0000000 0.0259307 -0.7649713 -0.6435421 0.0200000 0.0200000 1.0000000 1.0000000 0.5000000 1.0000000 -0.5000000 0.0000000
-0.1949580 0.1466350 -0.0000410 1.0000000 0.0000000 -0.0002510 0.0000000 -1.0000000 0.0000050 0.0200000 0.0200000 1.0000000 1.0000000 0.5000000 1.0000000 -0.5000000 0.0000000
-0.1702480 0.2750710 0.6627630 0.1242658 -0.9922490 0.0000000 0.7978454 0.0999193 -0.5945240 0.0200000 0.0200000 1.0000000 1.0000000 0.5000000 1.0000000 -0.5000000 0.0000000
0.2253080 0.1151770 0.2904420 0.5437632 -0.8392387 0.0000000 0.4418591 0.2862913 -0.8501752 0.0200000 0.0200000 1.0000000 1.0000000 0.5000000 1.0000000 -0.5000000 0.0000000
0.0173220 -0.2489730 -0.0000040 1.0000000 0.0000000 -0.0000570 0.0000000 -0.9999998 0.0005920 0.0200000 0.0200000 1.0000000 1.0000000 0.5000000 1.0000000 -0.5000000 0.0000000
0.1850260 0.2126070 0.1720820 0.7253481 -0.6883822 0.0000000 -0.0242269 -0.0255279 -0.9993805 0.0200000 0.0200000 1.0000000 1.0000000 0.5000000 1.0000000 -0.5000000 0.0000000
-0.0198520 -0.2321740 0.4003330 -0.7835714 0.6213018 0.0000000 -0.5797188 -0.7311279 -0.3596916 0.0200000 0.0200000 1.0000000 1.0000000 0.5000000 1.0000000 -0.5000000 0.0000000
0.0201610 0.0690530 0.8326900 0.5895430 -0.8077370 0.0000000 0.7266429 0.5303549 -0.4367079 0.0200000 0.0200000 1.0000000 1.0000000 0.5000000 1.0000000 -0.5000000 0.0000000
0.0584080 0.1429730 0.4944980 0.6776895 -0.7353482 0.0000000 -0.3827384 -0.3527279 -0.8538702 0.0200000 0.0200000 1.0000000 1.0000000 0.5000000 1.0000000 -0.5000000 0.0000000
0.2247560 0.0360940 0.3348140 0.3906218 -0.9205512 0.0000000 0.6915089 0.2934312 -0.6600860 0.0200000 0.0200000 1.0000000 1.0000000 0.5000000 1.0000000 -0.5000000 0.0000000
0.3057750 -0.3002500 0.1491370 -0.3816282 -0.9243159 0.0000000 -0.1165489 0.0481203 -0.9920185 0.0200000 0.0200000 1.0000000 1.0000000 0.5000000 1.0000000 -0.5000000 0.0000000
0.3248550 -0.2224950 0.1226120 -0.2215289 -0.9751538 0.0000000 -0.1606235 0.0364894 -0.9863410 0.0200000 0.0200000 1.0000000 1.0000000 0.5000000 1.0000000 -0.5000000 0.0000000
0.0617670 0.1102660 0.4082260 0.5917476 -0.8061233 0.0000000 0.6625454 0.4863520 -0.5696448 0.0200000 0.0200000 1.0000000 1.0000000 0.5000000 1.0000000 -0.5000000 0.0000000
-0.0479110 0.1861090 0.7795440 0.9941762 -0.1077671 0.0000000 0.0707957 0.6531061 -0.7539499 0.0200000 0.0200000 1.0000000 1.0000000 0.5000000 1.0000000 -0.5000000 0.0000000
-0.3525280 0.1081790 0.1229140 0.0703493 0.9975224 -0.0000000 0.2272774 -0.0160285 -0.9736981 0.0200000 0.0200000 1.0000000 1.0000000 0.5000000 1.0000000 -0.5000000 0.0000000
-0.2261130 0.0152160 0.7643990 -0.0820430 0.9966288 0.0000000 -0.5858901 -0.0482308 -0.8089540 0.0200000 0.0200000 1.0000000 1.0000000 0.5000000 1.0000000 -0.5000000 0.0000000
0.1019740 0.1430920 0.0058680 0.7150655 -0.6990574 0.0000000 -0.6557797 -0.6707968 -0.3463880 0.0200000 0.0200000 1.0000000 1.0000000 0.5000000 1.0000000 -0.5000000 0.0000000
-0.1996850 0.0297940 0.4197300 -0.2861874 0.9581737 0.0000000 -0.6424745 -0.1918943 -0.7418915 0.0200000 0.0200000 1.0000000 1.0000000 0.5000000 1.0000000 -0.5000000 0.0000000
0.1939320 0.0226880 0.3601550 0.3855994 -0.9226663 0.0000000 0.7531032 0.3147358 -0.5777343 0.0200000 0.0200000 1.0000000 1.0000000 0.5000000 1.0000000 -0.5000000 0.0000000
-0.1665980 -0.1792530 0.0019980 -0.4922419 0.8704585 0.0000000 0.8559101 0.4840148 -0.1820651 0.0200000 0.0200000 1.0000000 1.0000000 0.5000000 1.0000000 -0.5000000 0.0000000
-0.2472140 0.2834840 0.6514620 0.9816715 0.1905806 -0.0000000 0.1301244 -0.6702646 -0.7306251 0.0200000 0.0200000 1.0000000 1.0000000 0.5000000 1.0000000 -0.5000000 0.0000000
-0.2478730 0.1943300 0.0099110 0.3986482 0.9171039 -0.0000000 0.7665630 -0.3332108 -0.5489551 0.0200000 0.0200000 1.0000000 1.0000000 0.5000000 1.0000000 -0.5000000 0.0000000
-0.2903800 -0.1558760 0.2726260 -0.4431941 0.8964257 0.0000000 -0.3566224 -0.1763146 -0.9174604 0.0200000 0.0200000 1.0000000 1.0000000 0.5000000 1.0000000 -0.5000000 0.0000000
-0.2067200 -0.0951750 0.7286000 -0.5704407 0.8213388 0.0000000 -0.3640750 -0.2528593 -0.8963881 0.0200000 0.0200000 1.0000000 1.0000000 0.5000000 1.0000000 -0.5000000 0.0000000
0.0831020 -0.1692750 0.6862470 -0.8007444 -0.5990062 0.0000000 0.1066638 -0.1425870 -0.9840182 0.0200000 0.0200000 1.0000000 1.0000000 0.5000000 1.0000000 -0.5000000 0.0000000
0.1647260 -0.0277650 0.6586590 -0.1230897 -0.9923955 0.0000000 0.0856050 -0.0106178 -0.9962726 0.0200000 0.0200000 1.0000000 1.0000000 0.5000000 1.0000000 -0.5000000 0.0000000
-0.2571370 -0.0325730 0.6166560 -0.3112522 0.9503274 0.0000000 0.0833029 0.0272834 -0.9961507 0.0200000 0.0200000 1.0000000 1.0000000 0.5000000 1.0000000 -0.5000000 0.0000000
-0.2188220 0.3193030 0.6936420 -0.2028348 -0.9792130 0.0000000 0.9666420 -0.2002308 -0.1597212 0.0200000 0.0200000 1.0000000 1.0000000 0.5000000 1.0000000 -0.5000000 0.0000000
-0.2656710 0.0848660 0.0077190 0.0151935 0.9998846 -0.0000000 0.8794195 -0.0133630 -0.4758600 0.0200000 0.0200000 1.0000000 1.0000000 0.5000000 1.0000000 -0.5000000 0.0000000
0.0983700 0.0500840 0.4081170 0.4198925 -0.9075738 0.0000000 0.7892884 0.3651673 -0.4936362 0.0200000 0.0200000 1.0000000 1.0000000 0.5000000 1.0000000 -0.5000000 0.0000000
0.1107720 -0.3907610 0.0121650 -0.9981750 -0.0603878 0.0000000 -0.0461853 0.7634166 -0.6442531 0.0200000 0.0200000 1.0000000 1.0000000 0.5000000 1.0000000 -0.5000000 0.0000000
0.1513910 -0.0792490 0.6645310 -0.3471144 -0.9378228 0.0000000 0.0924665 -0.0342244 -0.9951274 0.0200000 0.0200000 1.0000000 1.0000000 0.5000000 1.0000000 -0.5000000 0.0000000
-0.2718600 0.2655770 0.5292250 0.4983987 0.8669479 -0.0000000 0.5294088 -0.3043512 -0.7918943 0.0200000 0.0200000 1.0000000 1.0000000 0.5000000 1.0000000 -0.5000000 0.0000000
-0.0902700 0.2386390 0.0004710 0.9666928 -0.2559394 0.0000000 -0.2542608 -0.9603525 -0.1143435 0.0200000 0.0200000 1.0000000 1.0000000 0.5000000 1.0000000 -0.5000000 0.0000000
0.1648900 -0.0254260 0.6243930 -0.1147036 -0.9933998 0.0000000 -0.0690641 0.0079745 -0.9975803 0.0200000 0.0200000 1.0000000 1.0000000 0.5000000 1.0000000 -0.5000000 0.0000000
-0.3243550 -0.1087450 0.2374730 -0.3150062 0.9490896 0.0000000 -0.2501696 -0.0830322 -0.9646351 0.0200000 0.0200000 1.0000000 1.0000000 0.5000000 1.0000000 -0.5000000 0.0000000
-0.3413730 0.1712250 0.2452970 0.1898730 0.9818087 -0.0000000 -0.2436181 0.0471136 -0.9687262 0.0200000 0.0200000 1.0000000 1.0000000 0.5000000 1.0000000 -0.5000000 0.0000000
-0.3303350 0.1027000 0.2908630 0.0158587 0.9998742 -0.0000000 -0.4358142 0.0069123 -0.9000101 0.0200000 0.0200000 1.0000000 1.0000000 0.5000000 1.0000000 -0.5000000 0.0000000
-0.2769510 -0.1126690 0.3170270 -0.3525404 0.9357966 0.0000000 -0.6102808 -0.2299096 -0.7580890 0.0200000 0.0200000 1.0000000 1.0000000 0.5000000 1.0000000 -0.5000000 0.0000000
-0.2095090 -0.1228010 0.6714370 -0.6271199 0.7789227 0.0000000 -0.1197554 -0.0964165 -0.9881106 0.0200000 0.0200000 1.0000000 1.0000000 0.5000000 1.0000000 -0.5000000 0.0000000
-0.0987580 0.3037830 0.3352150 0.9912316 -0.1321363 0.0000000 0.0868380 0.6514226 -0.7537292 0.0200000 0.0200000 1.0000000 1.0000000 0.5000000 1.0000000 -0.5000000 0.0000000
-0.0859820 -0.3631290 0.2876630 -0.8440072 0.5363319 0.0000000 -0.2631448 -0.4141020 -0.8713635 0.0200000 0.0200000 1.0000000 1.0000000 0.5000000 1.0000000 -0.5000000 0.0000000
-0.0428090 -0.2943580 0.0001200 0.9997595 0.0000000 -0.0219321 0.0005963 -0.9996303 0.0271815 0.0200000 0.0200000 1.0000000 1.0000000 0.5000000 1.0000000 -0.5000000 0.0000000
-0.1501200 -0.1755770 0.6110770 -0.8527936 0.5222481 0.0000000 0.0663997 0.1084258 -0.9918845 0.0200000 0.0200000 1.0000000 1.0000000 0.5000000 1.0000000 -0.5000000 0.0000000
-0.1293960 0.3255850 0.0665800 0.9997549 0.0221400 -0.0000000 0.0122323 -0.5523637 -0.8335135 0.0200000 0.0200000 1.0000000 1.0000000 0.5000000 1.0000000 -0.5000000 0.0000000
0.0214130 -0.2664050 0.4009730 -0.7311943 0.6821693 0.0000000 -0.6213380 -0.6659913 -0.4127889 0.0200000 0.0200000 1.0000000 1.0000000 0.5000000 1.0000000 -0.5000000 0.0000000
-0.2453560 0.2395870 0.5356690 -0.6774923 -0.7355299 0.0000000 0.6815367 -0.6277594 -0.3760662 0.0200000 0.0200000 1.0000000 1.0000000 0.5000000 1.0000000 -0.5000000 0.0000000
-0.3353010 0.0181720 0.2674900 -0.1041900 0.9945574 0.0000000 -0.3609297 -0.0378111 -0.9318262 0.0200000 0.0200000 1.0000000 1.0000000 0.5000000 1.0000000 -0.5000000 0.0000000
0.0909190 -0.0163800 0.7998240 -0.1073629 -0.9942199 0.0000000 0.7577898 -0.0818315 -0.6473470 0.0200000 0.0200000 1.0000000 1.0000000 0.5000000 1.0000000 -0.5000000 0.0000000
-0.1664060 0.2915050 0.0304880 0.9800804 0.1986011 -0.0000000 0.1400554 -0.6911618 -0.7089992 0.0200000 0.0200000 1.0000000 1.0000000 0.5000000 1.0000000 -0.5000000 0.0000000
-0.2379550 0.2924400 0.6578630 0.9287090 0.3708093 -0.0000000 0.2621917 -0.6566712 -0.7071339 0.0200000 0.0200000 1.0000000 1.0000000 0.5000000 1.0000000 -0.5000000 0.0000000
-0.0617410 0.1307400 -0.0000020 0.9999999 0.0000000 -0.0005300 0.0000003 -0.9999999 0.0005080 0.0200000 0.0200000 1.0000000 1.0000000 0.5000000 1.0000000 -0.5000000 0.0000000
-0.1835010 -0.1520760 0.6592290 -0.7447629 0.6673291 0.0000000 -0.0588604 -0.0656903 -0.9961025 0.0200000 0.0200000 1.0000000 1.0000000 0.5000000 1.0000000 -0.5000000 0.0000000
0.1103510 -0.4007470 0.0233930 -0.9988775 -0.0473687 0.0000000 -0.0283637 0.5981139 -0.8009091 0.0200000 0.0200000 1.0000000 1.0000000 0.5000000 1.0000000 -0.5000000 0.0000000
-0.0949050 0.2389300 0.6606310 0.9992298 0.0392415 -0.0000000 -0.0084632 0.2155039 -0.9764663 0.0200000 0.0200000 1.0000000 1.0000000 0.5000000 1.0000000 -0.5000000 0.0000000
0.0553740 0.2634290 0.0583330 0.8428165 -0.5382010 0.0000000 -0.3214390 -0.5033697 -0.8020573 0.0200000 0.0200000 1.0000000 1.0000000 0.5000000 1.0000000 -0.5000000 0.0000000
0.0942600 0.0719680 0.4037330 0.4949469 -0.8689232 0.0000000 0.7353282 0.4188499 -0.5327825 0.0200000 0.0200000 1.0000000 1.0000000 0.5000000 1.0000000 -0.5000000 0.0000000
-0.2013160 0.1669670 0.7198350 0.6255033 0.7802215 -0.0000000 -0.3297716 0.2643778 -0.9062864 0.0200000 0.0200000 1.0000000 1.0000000 0.5000000 1.0000000 -0.5000000 0.0000000
-0.2121240 0.1693600 0.3972990 0.4969188 0.8677970 -0.0000000 -0.7185896 0.4114795 -0.5606368 0.0200000 0.0200000 1.0000000 1.0000000 0.5000000 1.0000000 -0.5000000 0.0000000
0.2499390 -0.2470270 0.3553840 0.0320499 -0.9994863 0.0000000 0.7222299 0.0231593 -0.6912652 0.0200000 0.0200000 1.0000000 1.0000000 0.5000000 1.0000000 -0.5000000 0.0000000
-0.0045490 -0.4283590 0.2018930 -0.9577108 0.2877325 0.0000000 -0.0265177 -0.0882636 -0.9957441 0.0200000 0.0200000 1.0000000 1.0000000 0.5000000 1.0000000 -0.5000000 0.0000000
-0.2145370 0.2164400 0.6613030 -0.5162821 0.8564186 0.0000000 -0.6963769 -0.4198028 -0.5820867 0.0200000 0.0200000 1.0000000 1.0000000 0.5000000 1.0000000 -0.5000000 0.0000000
-0.3095060 0.1371580 0.0476770 0.1861749 0.9825166 -0.0000000 0.6551329 -0.1241397 -0.7452451 0.0200000 0.0200000 1.0000000 1.0000000 0.5000000 1.0000000 -0.5000000 0.0000000
0.1568360 0.0250550 0.5765840 0.1205362 -0.9927089 0.0000000 -0.2641111 -0.0320688 -0.9639590 0.0200000 0.0200000 1.0000000 1.0000000 0.5000000 1.0000000 -0.5000000 0.0000000
-0.0128330 0.3247510 0.2501750 0.9192357 -0.3937076 0.0000000 0.1098748 0.2565376 -0.9602687 0.0200000 0.0200000 1.0000000 1.0000000 0.5000000 1.0000000 -0.5000000 0.0000000
0.0050570 -0.1963900 0.7129750 -0.9844712 -0.1755462 0.0000000 0.0576872 -0.3235122 -0.9444639 0.0200000 0.0200000 1.0000000 1.0000000 0.5000000 1.0000000 -0.5000000 0.0000000
0.2013210 0.1933270 0.2014760 0.6692627 -0.7430259 0.0000000 0.0841216 0.0757705 -0.9935705 0.0200000 0.0200000 1.0000000 1.0000000 0.5000000 1.0000000 -0.5000000 0.0000000
0.0628980 -0.4240240 0.2965750 -0.9641109 0.2654998 0.0000000 -0.1178800 -0.4280583 -0.8960303 0.0200000 0.0200000 1.0000000 1.0000000 0.5000000 1.0000000 -0.5000000 0.0000000
-0.2174880 0.2954000 0.6503470 0.7820637 0.6231984 -0.0000000 0.4465385 -0.5603697 -0.6975594 0.0200000 0.0200000 1.0000000 1.0000000 0.5000000 1.0000000 -0.5000000 0.0000000
-0.2446550 0.1295590 0.6628590 0.4265225 0.9044770 -0.0000000 -0.1458433 0.0687751 -0.9869142 0.0200000 0.0200000 1.0000000 1.0000000 0.5000000 1.0000000 -0.5000000 0.0000000
-0.2514320 0.1465540 0.5640750 -0.1764759 0.9843050 0.0000000 -0.1322769 -0.0237159 -0.9909291 0.0200000 0.0200000 1.0000000 1.0000000 0.5000000 1.0000000 -0.5000000 0.0000000
-0.0934560 0.3222020 0.3106900 0.9863171 -0.1648591 0.0000000 0.0899478 0.5381387 -0.8380430 0.0200000 0.0200000 1.0000000 1.0000000 0.5000000 1.0000000 -0.5000000 0.0000000
0.0200370 0.2220070 0.6697430 0.9180819 -0.3963908 0.0000000 0.0725447 0.1680209 -0.9831105 0.0200000 0.0200000 1.0000000 1.0000000 0.5000000 1.0000000 -0.5000000 0.0000000
0.1742360 0.1233080 0.3341750 0.6024439 -0.7981613 0.0000000 0.5902719 0.4455311 -0.6731130 0.0200000 0.0200000 1.0000000 1.0000000 0.5000000 1.0000000 -0.5000000 0.0000000
0.0911280 -0.1268890 0.7513450 -0.6667846 -0.7452505 0.0000000 0.4097142 -0.3665762 -0.8353180 0.0200000 0.0200000 1.0000000 1.0000000 0.5000000 1.0000000 -0.5000000 0.0000000
-0.0528720 0.1078830 0.8345670 0.9971729 -0.0751410 0.0000000 0.0692108 0.9184754 -0.3893749 0.0200000 0.0200000 1.0000000 1.0000000 0.5000000 1.0000000 -0.5000000 0.0000000
0.1465740 -0.0914980 0.6191590 -0.4107259 -0.9117589 0.0000000 -0.0970568 0.0437218 -0.9943181 0.0200000 0.0200000 1.0000000 1.0000000 0.5000000 1.0000000 -0.5000000 0.0000000
0.0820010 -0.2236540 0.0000060 1.0000000 -0.0000000 0.0000370 -0.0000000 -1.0000000 0.0000840 0.0200000 0.0200000 1.0000000 1.0000000 0.5000000 1.0000000 -0.5000000 0.0000000
-0.1550180 0.1865160 0.7507910 0.8586832 0.5125068 -0.0000000 -0.2880887 0.4826802 -0.8270579 0.0200000 0.0200000 1.0000000 1.0000000 0.5000000 1.0000000 -0.5000000 0.0000000
0.1999200 0.1853290 0.2354320 0.6573602 -0.7535765 0.0000000 0.1891846 0.1650296 -0.9679744 0.0200000 0.0200000 1.0000000 1.0000000 0.5000000 1.0000000 -0.5000000 0.0000000
0.1016220 0.0467980 -0.0000280 0.9999506 -0.0000000 0.0099444 0.0000870 -0.9999617 -0.0087516 0.0200000 0.0200000 1.0000000 1.0000000 0.5000000 1.0000000 -0.5000000 0.0000000
-0.0114600 -0.4186180 0.2477980 -0.9343842 0.3562671 0.0000000 -0.0929469 -0.2437724 -0.9653683 0.0200000 0.0200000 1.0000000 1.0000000 0.5000000 1.0000000 -0.5000000 0.0000000
-0.2467640 0.1686970 0.0044060 0.2883328 0.9575303 -0.0000000 0.8779689 -0.2643752 -0.3990944 0.0200000 0.0200000 1.0000000 1.0000000 0.5000000 1.0000000 -0.5000000 0.0000000
-0.0448010 -0.1089610 0.8199800 -0.9988607 0.0477220 0.0000000 -0.0406329 -0.8504812 -0.5244337 0.0200000 0.0200000 1.0000000 1.0000000 0.5000000 1.0000000 -0.5000000 0.0000000
-0.0102500 0.2134820 0.3875200 0.8503707 -0.5261841 0.0000000 0.4022533 0.6500851 -0.6446562 0.0200000 0.0200000 1.0000000 1.0000000 0.5000000 1.0000000 -0.5000000 0.0000000
-0.2062420 0.0616420 0.4212300 -0.1252047 0.9921309 0.0000000 -0.6312658 -0.0796643 -0.7714643 0.0200000 0.0200000 1.0000000 1.0000000 0.5000000 1.0000000 -0.5000000 0.0000000
-0.1123850 0.0252580 -0.0000010 0.9999999 -0.0000000 0.0004580 0.0000001 -1.0000000 -0.0002070 0.0200000 0.0200000 1.0000000 1.0000000 0.5000000 1.0000000 -0.5000000 0.0000000
0.0729400 -0.4297260 0.2909750 -0.9744712 0.2245123 0.0000000 -0.0890867 -0.3866711 -0.9179047 0.0200000 0.0200000 1.0000000 1.0000000 0.5000000 1.0000000 -0.5000000 0.0000000
-0.2693800 -0.2255670 0.2223110 -0.5436671 0.8393010 0.0000000 -0.1848325 -0.1197274 -0.9754498 0.0200000 0.0200000 1.0000000 1.0000000 0.5000000 1.0000000 -0.5000000 0.0000000
0.1993880 0.1681860 0.2694190 0.6374928 -0.7704563 0.0000000 0.3006653 0.2487772 -0.9207118 0.0200000 0.0200000 1.0000000 1.0000000 0.5000000 1.0000000 -0.5000000 0.0000000
0.2293730 -0.2594230 0.0007930 -0.4315208 -0.9021030 0.0000000 -0.8990403 0.4300558 -0.0823321 0.0200000 0.0200000 1.0000000 1.0000000 0.5000000 1.0000000 -0.5000000 0.0000000
-0.2023390 -0.0542510 0.4972630 -0.4841247 0.8749990 0.0000000 0.4631633 0.2562618 -0.8484160 0.0200000 0.0200000 1.0000000 1.0000000 0.5000000 1.0000000 -0.5000000 0.0000000
-0.0978170 -0.1524270 -0.0000560 0.9999998 0.0000000 -0.0005570 0.0000002 -0.9999999 0.0003910 0.0200000 0.0200000 1.0000000 1.0000000 0.5000000 1.0000000 -0.5000000 0.0000000
-0.1304720 -0.2886620 0.3296020 -0.7631096 0.6462691 0.0000000 -0.4646371 -0.5486399 -0.6950587 0.0200000 0.0200000 1.0000000 1.0000000 0.5000000 1.0000000 -0.5000000 0.0000000
-0.0985870 -0.3893580 0.1951200 -0.8656069 0.5007241 0.0000000 -0.0661657 -0.1143814 -0.9912311 0.0200000 0.0200000 1.0000000 1.0000000 0.5000000 1.0000000 -0.5000000 0.0000000
-0.1499320 0.3524730 0.2529710 0.9995436 0.0302098 -0.0000000 -0.0087231 0.2886193 -0.9574042 0.0200000 0.0200000 1.0000000 1.0000000 0.5000000 1.0000000 -0.5000000 0.0000000
0.1651850 -0.0249660 0.6536210 -0.1112641 -0.9937909 0.0000000 0.0613348 -0.0068670 -0.9980936 0.0200000 0.0200000 1.0000000 1.0000000 0.5000000 1.0000000 -0.5000000 0.0000000
-0.1640060 -0.1524050 0.7128330 -0.7876133 0.6161699 0.0000000 -0.2328524 -0.2976414 -0.9258452 0.0200000 0.0200000 1.0000000 1.0000000 0.5000000 1.0000000 -0.5000000 0.0000000
0.1918780 -0.1104820 0.3843050 0.1949141 -0.9808203 0.0000000 0.8635967 0.1716187 -0.4740757 0.0200000 0.0200000 1.0000000 1.0000000 0.5000000 1.0000000 -0.5000000 0.0000000
0.3274150 -0.1561570 0.2354240 0.0037635 -0.9999929 0.0000000 0.2448013 0.0009213 -0.9695728 0.0200000 0.0200000 1.0000000 1.0000000 0.5000000 1.0000000 -0.5000000 0.0000000
-0.3242330 0.0078850 0.0679890 -0.1502935 0.9886414 0.0000000 0.5313750 0.0807798 -0.8432765 0.0200000 0.0200000 1.0000000 1.0000000 0.5000000 1.0000000 -0.5000000 0.0000000
-0.1076200 -0.3493480 0.0451280 -0.8006350 0.5991524 0.0000000 0.3766853 0.5033569 -0.7776503 0.0200000 0.0200000 1.0000000 1.0000000 0.5000000 1.0000000 -0.5000000 0.0000000
-0.1164050 0.2782000 0.5979710 0.5897625 -0.8075767 0.0000000 0.2242406 0.1637599 -0.9606763 0.0200000 0.0200000 1.0000000 1.0000000 0.5000000 1.0000000 -0.5000000 0.0000000
-0.1626410 -0.2695550 0.0289250 -0.6309689 0.7758081 0.0000000 0.5849177 0.4757167 -0.6569360 0.0200000 0.0200000 1.0000000 1.0000000 0.5000000 1.0000000 -0.5000000 0.0000000
0.0792140 0.1618110 0.7245390 0.7124457 -0.7017273 0.0000000 0.2894661 0.2938875 -0.9109553 0.0200000 0.0200000 1.0000000 1.0000000 0.5000000 1.0000000 -0.5000000 0.0000000
0.0512300 -0.4133690 0.3101430 -0.9429518 0.3329294 0.0000000 -0.1787694 -0.5063264 -0.8436083 0.0200000 0.0200000 1.0000000 1.0000000 0.5000000 1.0000000 -0.5000000 0.0000000
-0.2141630 0.1385270 0.4052460 0.3876785 0.9217946 -0.0000000 -0.7552669 0.3176421 -0.5733023 0.0200000 0.0200000 1.0000000 1.0000000 0.5000000 1.0000000 -0.5000000 0.0000000
0.1098500 -0.1155990 -0.0000010 0.9999999 0.0000000 -0.0003270 0.0000001 -1.0000000 0.0002520 0.0200000 0.0200000 1.0000000 1.0000000 0.5000000 1.0000000 -0.5000000 0.0000000
-0.0356570 0.2273990 0.7040750 0.9902806 -0.1390841 0.0000000 0.0451550 0.3215045 -0.9458308 0.0200000 0.0200000 1.0000000 1.0000000 0.5000000 1.0000000 -0.5000000 0.0000000
0.0049670 0.0893450 0.8315260 0.7606293 -0.6491865 0.0000000 0.5818200 0.6816984 -0.4435908 0.0200000 0.0200000 1.0000000 1.0000000 0.5000000 1.0000000 -0.5000000 0.0000000
-0.0251780 -0.4195080 0.1158770 -0.9610946 0.2762196 0.0000000 0.0522593 0.1818342 -0.9819395 0.0200000 0.0200000 1.0000000 1.0000000 0.5000000 1.0000000 -0.5000000 0.0000000
0.0765220 -0.0790170 0.4828050 -0.6116522 -0.7911268 0.0000000 -0.5653889 0.4371250 -0.6994692 0.0200000 0.0200000 1.0000000 1.0000000 0.5000000 1.0000000 -0.5000000 0.0000000
0.0777220 -0.1306680 0.4176860 0.2313763 -0.9728643 0.0000000 0.9701581 0.2307326 -0.0745366 0.0200000 0.0200000 1.0000000 1.0000000 0.5000000 1.0000000 -0.5000000 0.0000000
0.3000230 -0.3176320 0.1766020 -0.4113114 -0.9114949 0.0000000 -0.0684733 0.0308985 -0.9971743 0.0200000 0.0200000 1.0000000 1.0000000 0.5000000 1.0000000 -0.5000000 0.0000000
-0.3397880 0.1688360 0.2514530 0.1835906 0.9830028 -0.0000000 -0.2693694 0.0503088 -0.9617220 0.0200000 0.0200000 1.0000000 1.0000000 0.5000000 1.0000000 -0.5000000 0.0000000
0.1447950 -0.0755920 0.7039680 -0.3276524 -0.9447983 0.0000000 0.2687224 -0.0931919 -0.9586989 0.0200000 0.0200000 1.0000000 1.0000000 0.5000000 1.0000000 -0.5000000 0.0000000
-0.1720160 -0.1552960 0.6896780 -0.7770533 0.6294348 0.0000000 -0.1625188 -0.2006336 -0.9660920 0.0200000 0.0200000 1.0000000 1.0000000 0.5000000 1.0000000 -0.5000000 0.0000000
-0.3181230 0.1998510 0.2870810 0.3022885 0.9532165 -0.0000000 -0.4143021 0.1313854 -0.9006063 0.0200000 0.0200000 1.0000000 1.0000000 0.5000000 1.0000000 -0.5000000 0.0000000
0.0498740 -0.3985590 0.3280100 -0.9226973 0.3855252 0.0000000 -0.2406013 -0.5758434 -0.7813549 0.0200000 0.0200000 1.0000000 1.0000000 0.5000000 1.0000000 -0.5000000 0.0000000
-0.2731850 -0.1368660 0.3122310 -0.4045136 0.9145320 0.0000000 -0.5570212 -0.2463803 -0.7931104 0.0200000 0.0200000 1.0000000 1.0000000 0.5000000 1.0000000 -0.5000000 0.0000000
0.0466550 -0.0552070 0.0000010 1.0000000 0.0000000 -0.0002850 0.0000001 -1.0000000 0.0002030 0.0200000 0.0200000 1.0000000 1.0000000 0.5000000 1.0000000 -0.5000000 0.0000000
-0.0225640 -0.0392880 0.0000050 1.0000000 -0.0000000 0.0000390 0.0000000 -1.0000000 -0.0000180 0.0200000 0.0200000 1.0000000 1.0000000 0.5000000 1.0000000 -0.5000000 0.0000000
0.1504040 -0.1889970 0.4115440 0.4784122 -0.8781354 0.0000000 0.8196970 0.4465747 -0.3587031 0.0200000 0.0200000 1.0000000 1.0000000 0.5000000 1.0000000 -0.5000000 0.0000000
0.2235320 -0.2679630 0.3816810 0.1302868 -0.9914763 0.0000000 0.6851378 0.0900319 -0.7228281 0.0200000 0.0200000 1.0000000 1.0000000 0.5000000 1.0000000 -0.5000000 0.0000000
0.1473880 -0.1374030 -0.0000080 0.9999999 -0.0000000 0.0004690 -0.0000001 -1.0000000 0.0001950 0.0200000 0.0200000 1.0000000 1.0000000 0.5000000 1.0000000 -0.5000000 0.0000000
0.1983190 0.1660030 0.0817530 0.7060280 -0.7081839 0.0000000 -0.3680091 -0.3668888 -0.8543781 0.0200000 0.0200000 1.0000000 1.0000000 0.5000000 1.0000000 -0.5000000 0.0000000
-0.2783860 0.1745250 0.0278250 0.3008870 0.9536598 -0.0000000 0.7049773 -0.2224258 -0.6734492 0.0200000 0.0200000 1.0000000 1.0000000 0.5000000 1.0000000 -0.5000000 0.0000000
