ply
format ascii 1.0
comment 2D Gaussian splats: pk, tu, tv, scales, diffuse albedo, opacity
element vertex 273
property float x
property float y
property float z
property float tu_x
property float tu_y
property float tu_z
property float tv_x
property float tv_y
property float tv_z
property float su
property float sv
property float albedo_r
property float albedo_g
property float albedo_b
property float opacity
property float beta
property float shape
end_header
-0.0703910 -0.1184020 0.5003180 -0.8617554 0.5073240 0.0000000 -0.5005069 -0.8501758 -0.1633827 0.0350000 0.0350000 0.0500000 0.1000000 0.1000000 1.0000000 0.0000000 0.0000000
-0.1553890 -0.0482370 0.1240790 -0.2864978 0.9580809 0.0000000 0.9550938 0.2856046 -0.0789046 0.0350000 0.0350000 0.0500000 0.1000000 0.1000000 1.0000000 0.0000000 0.0000000
0.3274050 -0.0052640 0.2319270 -0.1510671 -0.9885235 0.0000000 -0.8601783 0.1314533 -0.4927610 0.0350000 0.0350000 0.0500000 0.1000000 0.1000000 1.0000000 0.0000000 0.0000000
-0.0229940 -0.0245440 0.5231700 -0.7191808 0.6948230 0.0000000 -0.5668955 -0.5867686 -0.5782146 0.0350000 0.0350000 0.0500000 0.1000000 0.1000000 1.0000000 0.0000000 0.0000000
-0.3744900 -0.0140080 0.4306360 -0.2888351 -0.9573789 0.0000000 0.3608333 -0.1088611 -0.9262552 0.0350000 0.0350000 0.0500000 0.1000000 0.1000000 1.0000000 0.0000000 0.0000000
-0.0260110 0.0607650 0.5122790 0.9145446 0.4044851 -0.0000000 -0.3944759 0.8919135 -0.2210861 0.0350000 0.0350000 0.0500000 0.1000000 0.1000000 1.0000000 0.0000000 0.0000000
0.2949460 0.0488920 0.2764460 0.1564053 -0.9876930 0.0000000 0.1012099 0.0160270 -0.9947360 0.0350000 0.0350000 0.0500000 0.1000000 0.1000000 1.0000000 0.0000000 0.0000000
-0.0884000 0.0511660 0.5057670 0.4962743 0.8681658 -0.0000000 -0.8576586 0.4902680 -0.1551098 0.0350000 0.0350000 0.0500000 0.1000000 0.1000000 1.0000000 0.0000000 0.0000000
0.3112560 -0.0004580 0.4567250 -0.9995221 0.0000000 0.0309127 -0.0001990 -0.9999793 -0.0064339 0.0350000 0.0350000 0.0500000 0.1000000 0.1000000 1.0000000 0.0000000 0.0000000
-0.0084300 -0.2091720 0.4945730 0.9938262 -0.1109479 0.0000000 0.1084383 0.9713468 -0.2114866 0.0350000 0.0350000 0.0500000 0.1000000 0.1000000 1.0000000 0.0000000 0.0000000
0.3539860 -0.0171910 0.4227550 -0.9255362 0.3786592 0.0000000 0.3603524 0.8807899 -0.3071732 0.0350000 0.0350000 0.0500000 0.1000000 0.1000000 1.0000000 0.0000000 0.0000000
-0.2064470 -0.0100980 0.4913980 0.0485859 -0.9988190 0.0000000 0.2105690 0.0102428 -0.9775253 0.0350000 0.0350000 0.0500000 0.1000000 0.1000000 1.0000000 0.0000000 0.0000000
0.2169440 -0.0473690 0.1362750 -0.2036081 -0.9790525 0.0000000 -0.6780367 0.1410075 -0.7213758 0.0350000 0.0350000 0.0500000 0.1000000 0.1000000 1.0000000 0.0000000 0.0000000
-0.2526240 -0.1205720 0.3541700 -0.4244944 0.9054305 0.0000000 -0.2990149 -0.1401876 -0.9438949 0.0350000 0.0350000 0.0500000 0.1000000 0.1000000 1.0000000 0.0000000 0.0000000
-0.1753050 0.2088030 0.1881360 0.7674745 0.6410794 -0.0000000 0.4185268 -0.5010435 -0.7574897 0.0350000 0.0350000 0.0500000 0.1000000 0.1000000 1.0000000 0.0000000 0.0000000
-0.0327880 -0.2646920 0.1827330 -0.9931916 0.1164923 0.0000000 0.0795890 0.6785606 -0.7302199 0.0350000 0.0350000 0.0500000 0.1000000 0.1000000 1.0000000 0.0000000 0.0000000
0.2847380 0.0908780 0.2771590 0.2960349 -0.9551771 0.0000000 0.1007970 0.0312397 -0.9944164 0.0350000 0.0350000 0.0500000 0.1000000 0.1000000 1.0000000 0.0000000 0.0000000
-0.2163710 -0.0750020 0.1481070 -0.3200257 0.9474089 0.0000000 0.6124827 0.2068908 -0.7629293 0.0350000 0.0350000 0.0500000 0.1000000 0.1000000 1.0000000 0.0000000 0.0000000
-0.2750660 -0.0718550 0.3393380 -0.2450068 0.9695214 0.0000000 -0.2926191 -0.0739475 -0.9533655 0.0350000 0.0350000 0.0500000 0.1000000 0.1000000 1.0000000 0.0000000 0.0000000
0.1825240 -0.0815950 0.1283700 -0.3899372 -0.9208415 0.0000000 -0.9033529 0.3825315 -0.1939672 0.0350000 0.0350000 0.0500000 0.1000000 0.1000000 1.0000000 0.0000000 0.0000000
0.2110480 0.2027530 0.2178450 0.6924190 -0.7214956 0.0000000 -0.2912607 -0.2795227 -0.9148958 0.0350000 0.0350000 0.0500000 0.1000000 0.1000000 1.0000000 0.0000000 0.0000000
0.0440180 -0.0229990 0.1202770 0.9999517 -0.0000000 0.0098281 -0.0000496 -0.9999873 0.0050488 0.0350000 0.0350000 0.0500000 0.1000000 0.1000000 1.0000000 0.0000000 0.0000000
-0.2024510 0.1992840 0.3444700 0.7013898 0.7127779 -0.0000000 -0.2225193 0.2189641 -0.9500210 0.0350000 0.0350000 0.0500000 0.1000000 0.1000000 1.0000000 0.0000000 0.0000000
-0.0307220 0.2784920 0.3507630 0.9944612 0.1051041 -0.0000000 -0.0339938 0.3216386 -0.9462521 0.0350000 0.0350000 0.0500000 0.1000000 0.1000000 1.0000000 0.0000000 0.0000000
-0.3368320 0.0547030 0.3340900 0.9268870 -0.3753404 0.0000000 0.2190805 0.5410100 -0.8119802 0.0350000 0.0350000 0.0500000 0.1000000 0.1000000 1.0000000 0.0000000 0.0000000
0.1078380 0.1088990 0.1234010 0.7113768 -0.7028109 0.0000000 -0.7012640 -0.7098111 -0.0663095 0.0350000 0.0350000 0.0500000 0.1000000 0.1000000 1.0000000 0.0000000 0.0000000
0.0077660 0.1341790 0.1224150 0.9987162 -0.0506557 0.0000000 -0.0505951 -0.9975215 -0.0488988 0.0350000 0.0350000 0.0500000 0.1000000 0.1000000 1.0000000 0.0000000 0.0000000
-0.2396960 0.1546300 0.3384880 0.5380614 0.8429056 -0.0000000 -0.2531607 0.1616029 -0.9538313 0.0350000 0.0350000 0.0500000 0.1000000 0.1000000 1.0000000 0.0000000 0.0000000
0.2498010 0.0144050 0.4245480 0.0556897 -0.9984481 0.0000000 0.4113056 0.0229411 -0.9112088 0.0350000 0.0350000 0.0500000 0.1000000 0.1000000 1.0000000 0.0000000 0.0000000
0.3485350 -0.0029920 0.4212580 -0.3790428 0.9253792 0.0000000 0.9196573 0.3766991 -0.1110323 0.0350000 0.0350000 0.0500000 0.1000000 0.1000000 1.0000000 0.0000000 0.0000000
-0.1569100 0.2525820 0.2336420 0.8523746 0.5229317 -0.0000000 0.1230589 -0.2005851 -0.9719167 0.0350000 0.0350000 0.0500000 0.1000000 0.1000000 1.0000000 0.0000000 0.0000000
-0.1285280 -0.1232250 0.1253530 -0.6874197 0.7262604 0.0000000 0.7221730 0.6835508 -0.1059455 0.0350000 0.0350000 0.0500000 0.1000000 0.1000000 1.0000000 0.0000000 0.0000000
-0.2464810 -0.1650830 0.2934200 -0.5527168 0.8333692 0.0000000 -0.1421887 -0.0943040 -0.9853371 0.0350000 0.0350000 0.0500000 0.1000000 0.1000000 1.0000000 0.0000000 0.0000000
-0.1967950 0.1565670 0.4242730 0.6208766 0.7839084 -0.0000000 -0.3236389 0.2563307 -0.9107977 0.0350000 0.0350000 0.0500000 0.1000000 0.1000000 1.0000000 0.0000000 0.0000000
0.2058740 -0.1018570 0.4708590 -0.4375133 -0.8992119 0.0000000 0.4013902 -0.1952972 -0.8948435 0.0350000 0.0350000 0.0500000 0.1000000 0.1000000 1.0000000 0.0000000 0.0000000
-0.3535010 -0.0611480 0.2911720 -0.8822407 0.4707987 0.0000000 0.1287535 0.2412743 -0.9618780 0.0350000 0.0350000 0.0500000 0.1000000 0.1000000 1.0000000 0.0000000 0.0000000
-0.1317460 0.1984050 0.4527630 0.8352058 0.5499375 -0.0000000 -0.2345753 0.3562562 -0.9044645 0.0350000 0.0350000 0.0500000 0.1000000 0.1000000 1.0000000 0.0000000 0.0000000
0.1896180 0.1549090 0.1617850 0.6309790 -0.7757999 0.0000000 -0.5939694 -0.4830913 -0.6432908 0.0350000 0.0350000 0.0500000 0.1000000 0.1000000 1.0000000 0.0000000 0.0000000
0.3938020 -0.0203790 0.2830200 -0.5244398 -0.8514476 0.0000000 -0.5625972 0.3465256 -0.7506027 0.0350000 0.0350000 0.0500000 0.1000000 0.1000000 1.0000000 0.0000000 0.0000000
-0.0138900 0.2519690 0.1690360 0.9986265 0.0523941 -0.0000000 0.0391693 -0.7465643 -0.6641593 0.0350000 0.0350000 0.0500000 0.1000000 0.1000000 1.0000000 0.0000000 0.0000000
0.0732680 0.2352120 0.1632670 0.9571840 -0.2894803 0.0000000 -0.2205116 -0.7291348 -0.6478712 0.0350000 0.0350000 0.0500000 0.1000000 0.1000000 1.0000000 0.0000000 0.0000000
-0.1263310 0.2073250 0.4425660 0.8559991 0.5169773 -0.0000000 -0.2184742 0.3617445 -0.9063167 0.0350000 0.0350000 0.0500000 0.1000000 0.1000000 1.0000000 0.0000000 0.0000000
-0.2917600 -0.0244710 0.3339720 -0.7887880 -0.6146653 0.0000000 0.5838877 -0.7492918 -0.3124692 0.0350000 0.0350000 0.0500000 0.1000000 0.1000000 1.0000000 0.0000000 0.0000000
0.1129470 0.0546250 0.5022510 0.4293229 -0.9031511 0.0000000 0.8925499 0.4242835 -0.1527685 0.0350000 0.0350000 0.0500000 0.1000000 0.1000000 1.0000000 0.0000000 0.0000000
-0.2557990 0.1266960 0.2052740 0.4366525 0.8996303 -0.0000000 0.4689933 -0.2276347 -0.8533626 0.0350000 0.0350000 0.0500000 0.1000000 0.1000000 1.0000000 0.0000000 0.0000000
0.1038410 -0.2616320 0.3487320 -0.9322095 -0.3619190 0.0000000 0.1158955 -0.2985167 -0.9473415 0.0350000 0.0350000 0.0500000 0.1000000 0.1000000 1.0000000 0.0000000 0.0000000
0.0125500 -0.0391770 0.5192930 -0.9545819 -0.2979486 0.0000000 0.2743432 -0.8789539 -0.3900973 0.0350000 0.0350000 0.0500000 0.1000000 0.1000000 1.0000000 0.0000000 0.0000000
-0.0361400 0.0381480 0.5729750 0.7269678 0.6866716 -0.0000000 0.2526718 -0.2674995 -0.9298392 0.0350000 0.0350000 0.0500000 0.1000000 0.1000000 1.0000000 0.0000000 0.0000000
0.2075410 0.0095900 0.4842980 -0.0444430 0.9990119 0.0000000 0.3019034 0.0134308 -0.9532439 0.0350000 0.0350000 0.0500000 0.1000000 0.1000000 1.0000000 0.0000000 0.0000000
0.2342830 -0.1870180 0.2684700 -0.6217889 -0.7831849 0.0000000 0.0435694 -0.0345907 -0.9984514 0.0350000 0.0350000 0.0500000 0.1000000 0.1000000 1.0000000 0.0000000 0.0000000
0.1777700 0.2423590 0.2658660 0.8084564 -0.5885560 0.0000000 0.0231709 0.0318281 -0.9992247 0.0350000 0.0350000 0.0500000 0.1000000 0.1000000 1.0000000 0.0000000 0.0000000
-0.0871160 -0.2094770 0.4757890 -0.9261409 0.3771778 0.0000000 -0.1709581 -0.4197788 -0.8913804 0.0350000 0.0350000 0.0500000 0.1000000 0.1000000 1.0000000 0.0000000 0.0000000
0.0741790 -0.1934550 0.4912240 0.9360459 0.3518780 -0.0000000 -0.0660109 0.1755984 -0.9822463 0.0350000 0.0350000 0.0500000 0.1000000 0.1000000 1.0000000 0.0000000 0.0000000
0.1054100 0.2568560 0.1950700 0.9286751 -0.3708943 0.0000000 -0.2236940 -0.5601032 -0.7976499 0.0350000 0.0350000 0.0500000 0.1000000 0.1000000 1.0000000 0.0000000 0.0000000
-0.1132780 -0.1166930 0.4959380 -0.7179777 0.6960662 0.0000000 -0.6796054 -0.7009988 -0.2161877 0.0350000 0.0350000 0.0500000 0.1000000 0.1000000 1.0000000 0.0000000 0.0000000
0.2432550 0.0196300 0.1620060 0.0771950 -0.9970160 0.0000000 -0.7618999 -0.0589909 -0.6450028 0.0350000 0.0350000 0.0500000 0.1000000 0.1000000 1.0000000 0.0000000 0.0000000
-0.1642610 0.0514920 0.1247410 0.2892541 0.9572523 -0.0000000 0.9532400 -0.2880417 -0.0914628 0.0350000 0.0350000 0.0500000 0.1000000 0.1000000 1.0000000 0.0000000 0.0000000
0.0778850 0.2566390 0.3845290 0.9592358 -0.2826069 0.0000000 0.1062874 0.3607649 -0.9265806 0.0350000 0.0350000 0.0500000 0.1000000 0.1000000 1.0000000 0.0000000 0.0000000
-0.2169090 -0.2027440 0.2932990 -0.6822434 0.7311251 0.0000000 -0.1243958 -0.1160789 -0.9854194 0.0350000 0.0350000 0.0500000 0.1000000 0.1000000 1.0000000 0.0000000 0.0000000
-0.0315540 -0.1279280 0.5012040 -0.9724771 0.2329983 0.0000000 -0.2300453 -0.9601520 -0.1587050 0.0350000 0.0350000 0.0500000 0.1000000 0.1000000 1.0000000 0.0000000 0.0000000
0.0211890 -0.1480130 0.1231960 -0.9915219 -0.1299399 0.0000000 -0.1296844 0.9895716 -0.0626905 0.0350000 0.0350000 0.0500000 0.1000000 0.1000000 1.0000000 0.0000000 0.0000000
-0.2072750 -0.1038940 0.1507110 -0.4425891 0.8967245 0.0000000 0.6417117 0.3167245 -0.6984925 0.0350000 0.0350000 0.0500000 0.1000000 0.1000000 1.0000000 0.0000000 0.0000000
0.1958170 0.0071680 0.1277120 0.0305426 -0.9995335 0.0000000 -0.9847874 -0.0300920 -0.1711379 0.0350000 0.0350000 0.0500000 0.1000000 0.1000000 1.0000000 0.0000000 0.0000000
0.1252590 -0.0096450 0.1220700 0.9990693 -0.0000000 0.0431342 -0.0001204 -0.9999961 0.0027884 0.0350000 0.0350000 0.0500000 0.1000000 0.1000000 1.0000000 0.0000000 0.0000000
0.2757820 0.0240440 0.3600890 0.0831575 -0.9965364 0.0000000 0.3395338 0.0283329 -0.9401670 0.0350000 0.0350000 0.0500000 0.1000000 0.1000000 1.0000000 0.0000000 0.0000000
-0.2355660 0.0801880 0.4300970 0.3141977 0.9493576 -0.0000000 -0.3944125 0.1305341 -0.9096151 0.0350000 0.0350000 0.0500000 0.1000000 0.1000000 1.0000000 0.0000000 0.0000000
-0.0078750 -0.0740360 0.5104930 -0.9942041 0.1075087 0.0000000 -0.1054264 -0.9749476 -0.1958632 0.0350000 0.0350000 0.0500000 0.1000000 0.1000000 1.0000000 0.0000000 0.0000000
-0.4346110 0.0284990 0.4599220 0.9774338 0.2112418 -0.0000000 0.0220477 -0.1020168 -0.9945383 0.0350000 0.0350000 0.0500000 0.1000000 0.1000000 1.0000000 0.0000000 0.0000000
-0.2414350 0.1615630 0.3210040 0.5524202 0.8335658 -0.0000000 -0.2149633 0.1424604 -0.9661759 0.0350000 0.0350000 0.0500000 0.1000000 0.1000000 1.0000000 0.0000000 0.0000000
0.1490990 -0.0146580 0.4981910 -0.0896693 -0.9959716 0.0000000 0.9790085 -0.0881421 -0.1837754 0.0350000 0.0350000 0.0500000 0.1000000 0.1000000 1.0000000 0.0000000 0.0000000
-0.2832400 0.0795820 0.2256450 0.2614324 0.9652218 -0.0000000 0.3105235 -0.0841060 -0.9468375 0.0350000 0.0350000 0.0500000 0.1000000 0.1000000 1.0000000 0.0000000 0.0000000
0.0095130 -0.0480050 0.1202740 0.9999979 -0.0000000 0.0020421 -0.0000219 -0.9999423 0.0107450 0.0350000 0.0350000 0.0500000 0.1000000 0.1000000 1.0000000 0.0000000 0.0000000
0.0643530 -0.0363470 0.5106680 -0.5008368 -0.8655417 0.0000000 0.8484328 -0.4909369 -0.1978449 0.0350000 0.0350000 0.0500000 0.1000000 0.1000000 1.0000000 0.0000000 0.0000000
-0.1604080 0.1560990 0.4833690 0.6968994 0.7171689 -0.0000000 -0.3685041 0.3580891 -0.8578910 0.0350000 0.0350000 0.0500000 0.1000000 0.1000000 1.0000000 0.0000000 0.0000000
-0.1704050 0.2474100 0.2537960 0.8259557 0.5637350 -0.0000000 0.0222704 -0.0326294 -0.9992194 0.0350000 0.0350000 0.0500000 0.1000000 0.1000000 1.0000000 0.0000000 0.0000000
0.1501180 0.0186700 0.1233260 0.1091504 -0.9940252 0.0000000 -0.9919212 -0.1089194 -0.0650296 0.0350000 0.0350000 0.0500000 0.1000000 0.1000000 1.0000000 0.0000000 0.0000000
0.1943590 0.2277520 0.2720970 0.7618889 -0.6477077 0.0000000 0.0506209 0.0595446 -0.9969413 0.0350000 0.0350000 0.0500000 0.1000000 0.1000000 1.0000000 0.0000000 0.0000000
0.1124800 0.2314490 0.4109580 0.9024598 -0.4307740 0.0000000 0.1736864 0.3638683 -0.9151136 0.0350000 0.0350000 0.0500000 0.1000000 0.1000000 1.0000000 0.0000000 0.0000000
0.2753510 -0.0852050 0.2111350 -0.2870006 -0.9579304 0.0000000 -0.4472923 0.1340110 -0.8842910 0.0350000 0.0350000 0.0500000 0.1000000 0.1000000 1.0000000 0.0000000 0.0000000
-0.3567070 -0.0227370 0.2582780 -0.3010387 0.9536119 0.0000000 0.6761519 0.2134494 -0.7051652 0.0350000 0.0350000 0.0500000 0.1000000 0.1000000 1.0000000 0.0000000 0.0000000
0.1332590 -0.1384530 0.4854100 -0.7233235 -0.6905094 0.0000000 0.4955620 -0.5191119 -0.6963772 0.0350000 0.0350000 0.0500000 0.1000000 0.1000000 1.0000000 0.0000000 0.0000000
0.3278680 -0.0079880 0.4555120 -0.9180464 -0.3964730 0.0000000 0.3934791 -0.9111138 -0.1226615 0.0350000 0.0350000 0.0500000 0.1000000 0.1000000 1.0000000 0.0000000 0.0000000
-0.3397710 -0.0125610 0.2429090 -0.2088720 0.9779430 0.0000000 0.8018077 0.1712525 -0.5725181 0.0350000 0.0350000 0.0500000 0.1000000 0.1000000 1.0000000 0.0000000 0.0000000
-0.0469410 0.2954150 0.2467520 0.9886782 0.1500513 -0.0000000 0.0160256 -0.1055919 -0.9942804 0.0350000 0.0350000 0.0500000 0.1000000 0.1000000 1.0000000 0.0000000 0.0000000
0.2704130 -0.0726280 0.1985880 -0.2504669 -0.9681252 0.0000000 -0.5576353 0.1442677 -0.8174532 0.0350000 0.0350000 0.0500000 0.1000000 0.1000000 1.0000000 0.0000000 0.0000000
-0.1514310 0.1020090 0.1258820 0.5491893 0.8356980 -0.0000000 0.8297955 -0.5453104 -0.1186422 0.0350000 0.0350000 0.0500000 0.1000000 0.1000000 1.0000000 0.0000000 0.0000000
-0.3099510 0.0718410 0.2849670 0.9955421 0.0943184 -0.0000000 -0.0006729 0.0071022 -0.9999746 0.0350000 0.0350000 0.0500000 0.1000000 0.1000000 1.0000000 0.0000000 0.0000000
0.3544770 -0.0208100 0.2870400 -0.5140876 0.8577377 0.0000000 -0.5914225 -0.3544708 -0.7242720 0.0350000 0.0350000 0.0500000 0.1000000 0.1000000 1.0000000 0.0000000 0.0000000
0.0047340 -0.0181470 0.5916750 -0.9702437 -0.2421305 0.0000000 0.2413054 -0.9669374 -0.0824845 0.0350000 0.0350000 0.0500000 0.1000000 0.1000000 1.0000000 0.0000000 0.0000000
0.1852140 0.2311310 0.2291460 0.7827092 -0.6223876 0.0000000 -0.1770232 -0.2226228 -0.9586980 0.0350000 0.0350000 0.0500000 0.1000000 0.1000000 1.0000000 0.0000000 0.0000000
0.1276590 -0.0583180 0.4998970 -0.4091456 -0.9124691 0.0000000 0.8998281 -0.4034774 -0.1658775 0.0350000 0.0350000 0.0500000 0.1000000 0.1000000 1.0000000 0.0000000 0.0000000
-0.1963030 0.2189940 0.3060070 0.7454721 0.6665368 -0.0000000 -0.1419684 0.1587811 -0.9770535 0.0350000 0.0350000 0.0500000 0.1000000 0.1000000 1.0000000 0.0000000 0.0000000
0.0249400 0.1200350 0.1219420 0.9999694 -0.0000000 0.0078174 0.0003158 -0.9991837 -0.0403958 0.0350000 0.0350000 0.0500000 0.1000000 0.1000000 1.0000000 0.0000000 0.0000000
-0.1580990 -0.2473580 0.3074640 -0.8452249 0.5344108 0.0000000 -0.1162450 -0.1838532 -0.9760559 0.0350000 0.0350000 0.0500000 0.1000000 0.1000000 1.0000000 0.0000000 0.0000000
0.2982970 0.0047750 0.4566860 0.9524477 -0.3047020 0.0000000 0.3039467 0.9500868 -0.0703671 0.0350000 0.0350000 0.0500000 0.1000000 0.1000000 1.0000000 0.0000000 0.0000000
-0.2930680 0.0538810 0.2810700 0.1735231 0.9848298 -0.0000000 -0.1191703 0.0209973 -0.9926518 0.0350000 0.0350000 0.0500000 0.1000000 0.1000000 1.0000000 0.0000000 0.0000000
-0.1904550 -0.2318510 0.2611980 -0.7741977 0.6329439 0.0000000 -0.0066326 -0.0081128 -0.9999451 0.0350000 0.0350000 0.0500000 0.1000000 0.1000000 1.0000000 0.0000000 0.0000000
0.2070990 0.0015990 0.4886280 -0.0074392 0.9999723 0.0000000 0.0998953 0.0007432 -0.9949977 0.0350000 0.0350000 0.0500000 0.1000000 0.1000000 1.0000000 0.0000000 0.0000000
0.2324400 0.0366560 0.4582720 0.1489775 -0.9888406 0.0000000 0.4239468 0.0638713 -0.9034321 0.0350000 0.0350000 0.0500000 0.1000000 0.1000000 1.0000000 0.0000000 0.0000000
-0.2522710 -0.1374320 0.3326770 -0.4728445 0.8811459 0.0000000 -0.2518290 -0.1351376 -0.9582901 0.0350000 0.0350000 0.0500000 0.1000000 0.1000000 1.0000000 0.0000000 0.0000000
0.0741980 0.0323200 0.1207750 0.9998104 -0.0000000 0.0194736 0.0001589 -0.9999667 -0.0081605 0.0350000 0.0350000 0.0500000 0.1000000 0.1000000 1.0000000 0.0000000 0.0000000
0.1381450 -0.1583490 0.4945950 0.7121132 0.7020646 -0.0000000 -0.6894810 0.6993495 -0.1884841 0.0350000 0.0350000 0.0500000 0.1000000 0.1000000 1.0000000 0.0000000 0.0000000
-0.1615120 0.2079060 0.3977450 0.7912861 0.6114461 -0.0000000 -0.2389392 0.3092165 -0.9204853 0.0350000 0.0350000 0.0500000 0.1000000 0.1000000 1.0000000 0.0000000 0.0000000
-0.4333800 0.0041890 0.4246370 0.0869944 0.9962088 -0.0000000 0.4973580 -0.0434320 -0.8664575 0.0350000 0.0350000 0.0500000 0.1000000 0.1000000 1.0000000 0.0000000 0.0000000
0.0334020 0.2135680 0.4920820 0.9892695 -0.1461020 0.0000000 0.1135296 0.7687189 -0.6294301 0.0350000 0.0350000 0.0500000 0.1000000 0.1000000 1.0000000 0.0000000 0.0000000
-0.1107210 -0.2151470 0.1591000 -0.8922522 0.4515375 0.0000000 0.3474896 0.6866504 -0.6385626 0.0350000 0.0350000 0.0500000 0.1000000 0.1000000 1.0000000 0.0000000 0.0000000
-0.2033930 -0.1334180 0.1605280 -0.5447228 0.8386162 0.0000000 0.6439333 0.4182666 -0.6406270 0.0350000 0.0350000 0.0500000 0.1000000 0.1000000 1.0000000 0.0000000 0.0000000
-0.0450840 0.0148350 0.5172310 0.3068467 0.9517590 -0.0000000 -0.8987642 0.2897612 -0.3290308 0.0350000 0.0350000 0.0500000 0.1000000 0.1000000 1.0000000 0.0000000 0.0000000
-0.2644350 -0.1268340 0.3089660 -0.4260516 0.9046989 0.0000000 -0.2007138 -0.0945225 -0.9750792 0.0350000 0.0350000 0.0500000 0.1000000 0.1000000 1.0000000 0.0000000 0.0000000
-0.1519250 0.1942710 0.1631170 0.7893926 0.6138887 -0.0000000 0.4683215 -0.6022094 -0.6465438 0.0350000 0.0350000 0.0500000 0.1000000 0.1000000 1.0000000 0.0000000 0.0000000
-0.0364730 -0.0167620 0.5889380 -0.4012970 0.9159480 0.0000000 -0.8695611 -0.3809738 -0.3142014 0.0350000 0.0350000 0.0500000 0.1000000 0.1000000 1.0000000 0.0000000 0.0000000
-0.3202500 0.0365750 0.2387060 0.6802513 0.7329789 -0.0000000 0.5984287 -0.5553801 -0.5774393 0.0350000 0.0350000 0.0500000 0.1000000 0.1000000 1.0000000 0.0000000 0.0000000
0.2141600 0.0105920 0.1321120 0.0387438 -0.9992492 0.0000000 -0.9242351 -0.0358353 -0.3801386 0.0350000 0.0350000 0.0500000 0.1000000 0.1000000 1.0000000 0.0000000 0.0000000
0.2608020 0.1415470 0.2304640 0.4709228 -0.8821744 0.0000000 -0.2378192 -0.1269528 -0.9629772 0.0350000 0.0350000 0.0500000 0.1000000 0.1000000 1.0000000 0.0000000 0.0000000
0.0925750 -0.1951460 0.4923970 -0.9066005 -0.4219900 0.0000000 0.3335450 -0.7165859 -0.6125784 0.0350000 0.0350000 0.0500000 0.1000000 0.1000000 1.0000000 0.0000000 0.0000000
-0.0292660 0.2957030 0.2817830 0.9955613 0.0941155 -0.0000000 -0.0116714 0.1234606 -0.9922808 0.0350000 0.0350000 0.0500000 0.1000000 0.1000000 1.0000000 0.0000000 0.0000000
-0.0289730 0.2738530 0.1928440 0.9950811 0.0990639 -0.0000000 0.0613103 -0.6158524 -0.7854724 0.0350000 0.0350000 0.0500000 0.1000000 0.1000000 1.0000000 0.0000000 0.0000000
-0.2730610 -0.0134010 0.3695500 -0.0474230 0.9988749 0.0000000 -0.3547234 -0.0168410 -0.9348196 0.0350000 0.0350000 0.0500000 0.1000000 0.1000000 1.0000000 0.0000000 0.0000000
0.1739110 -0.2422400 0.2339400 -0.8145670 -0.5800695 0.0000000 -0.1343533 0.1886667 -0.9728073 0.0350000 0.0350000 0.0500000 0.1000000 0.1000000 1.0000000 0.0000000 0.0000000
-0.2558030 0.0693400 0.2501170 0.9919514 0.1266193 -0.0000000 0.0506582 -0.3968627 -0.9164790 0.0350000 0.0350000 0.0500000 0.1000000 0.1000000 1.0000000 0.0000000 0.0000000
0.0910730 0.0678240 0.5040920 0.5952987 -0.8035045 0.0000000 0.7940050 0.5882607 -0.1533147 0.0350000 0.0350000 0.0500000 0.1000000 0.1000000 1.0000000 0.0000000 0.0000000
0.2191800 0.0867090 0.4572440 0.3605416 -0.9327431 0.0000000 0.3998910 0.1545735 -0.9034347 0.0350000 0.0350000 0.0500000 0.1000000 0.1000000 1.0000000 0.0000000 0.0000000
0.2497380 0.0028410 0.4572400 -0.9999891 0.0000000 0.0046595 0.0001811 -0.9992444 0.0388666 0.0350000 0.0350000 0.0500000 0.1000000 0.1000000 1.0000000 0.0000000 0.0000000
0.2745440 0.1101250 0.2957310 0.3649408 -0.9310307 0.0000000 0.1672234 0.0655474 -0.9837377 0.0350000 0.0350000 0.0500000 0.1000000 0.1000000 1.0000000 0.0000000 0.0000000
0.0911030 -0.2832940 0.2863720 -0.9545320 -0.2981085 0.0000000 0.0423779 -0.1356925 -0.9898443 0.0350000 0.0350000 0.0500000 0.1000000 0.1000000 1.0000000 0.0000000 0.0000000
-0.0006880 -0.0928440 0.5072750 -0.9999576 0.0092075 0.0000000 -0.0090795 -0.9860557 -0.1661680 0.0350000 0.0350000 0.0500000 0.1000000 0.1000000 1.0000000 0.0000000 0.0000000
-0.2285240 0.1883690 0.2293570 0.6330987 0.7740711 -0.0000000 0.2184754 -0.1786870 -0.9593433 0.0350000 0.0350000 0.0500000 0.1000000 0.1000000 1.0000000 0.0000000 0.0000000
-0.2333100 0.1887630 0.2610150 0.6270275 0.7789971 -0.0000000 -0.0072790 0.0058589 -0.9999563 0.0350000 0.0350000 0.0500000 0.1000000 0.1000000 1.0000000 0.0000000 0.0000000
0.1411530 -0.1991640 0.4408190 -0.8180143 -0.5751979 0.0000000 0.2423786 -0.3446973 -0.9068828 0.0350000 0.0350000 0.0500000 0.1000000 0.1000000 1.0000000 0.0000000 0.0000000
-0.0768050 -0.1499100 0.1244400 -0.8932200 0.4496198 0.0000000 0.4479713 0.8899450 -0.0855545 0.0350000 0.0350000 0.0500000 0.1000000 0.1000000 1.0000000 0.0000000 0.0000000
-0.1184160 0.0216450 0.5030010 0.1758983 0.9844083 -0.0000000 -0.9729171 0.1738450 -0.1523493 0.0350000 0.0350000 0.0500000 0.1000000 0.1000000 1.0000000 0.0000000 0.0000000
0.1461150 -0.1993390 0.1631980 -0.8086686 -0.5882645 0.0000000 -0.4483131 0.6162818 -0.6474659 0.0350000 0.0350000 0.0500000 0.1000000 0.1000000 1.0000000 0.0000000 0.0000000
-0.2007950 0.0483050 0.1296400 0.2252221 0.9743074 -0.0000000 0.9460557 -0.2186914 -0.2390663 0.0350000 0.0350000 0.0500000 0.1000000 0.1000000 1.0000000 0.0000000 0.0000000
0.2589770 -0.1311910 0.3226380 -0.4457784 -0.8951434 0.0000000 0.2338874 -0.1164752 -0.9652617 0.0350000 0.0350000 0.0500000 0.1000000 0.1000000 1.0000000 0.0000000 0.0000000
-0.0881890 0.2491090 0.3946430 0.9453361 0.3260976 -0.0000000 -0.1261421 0.3656779 -0.9221539 0.0350000 0.0350000 0.0500000 0.1000000 0.1000000 1.0000000 0.0000000 0.0000000
0.0256820 0.2568380 0.4068000 0.9954408 -0.0953817 0.0000000 0.0380672 0.3972845 -0.9169056 0.0350000 0.0350000 0.0500000 0.1000000 0.1000000 1.0000000 0.0000000 0.0000000
-0.2642910 0.0761620 0.3664920 0.2691105 0.9631093 -0.0000000 -0.3382749 0.0945202 -0.9362884 0.0350000 0.0350000 0.0500000 0.1000000 0.1000000 1.0000000 0.0000000 0.0000000
0.1922730 -0.1880220 0.3850760 -0.6990744 -0.7150490 0.0000000 0.2697822 -0.2637551 -0.9260944 0.0350000 0.0350000 0.0500000 0.1000000 0.1000000 1.0000000 0.0000000 0.0000000
-0.1696350 0.1478020 0.1408830 0.6551358 0.7555111 -0.0000000 0.2605796 -0.2259597 -0.9386376 0.0350000 0.0350000 0.0500000 0.1000000 0.1000000 1.0000000 0.0000000 0.0000000
-0.1662430 0.2497030 0.2617910 0.8349108 0.5503853 -0.0000000 -0.0077885 0.0118148 -0.9998999 0.0350000 0.0350000 0.0500000 0.1000000 0.1000000 1.0000000 0.0000000 0.0000000
0.1205360 -0.0367480 0.5021420 -0.2841896 -0.9587681 0.0000000 0.9473950 -0.2808185 -0.1535700 0.0350000 0.0350000 0.0500000 0.1000000 0.1000000 1.0000000 0.0000000 0.0000000
-0.1687550 -0.2143310 0.3742350 -0.7871995 0.6166984 0.0000000 -0.2236302 -0.2854582 -0.9319352 0.0350000 0.0350000 0.0500000 0.1000000 0.1000000 1.0000000 0.0000000 0.0000000
-0.0149050 -0.0635080 0.5124410 -0.9721320 0.2344342 0.0000000 -0.2284966 -0.9475105 -0.2236362 0.0350000 0.0350000 0.0500000 0.1000000 0.1000000 1.0000000 0.0000000 0.0000000
0.2180990 0.1554820 0.3873970 0.5773312 -0.8165101 0.0000000 0.3102919 0.2193986 -0.9249774 0.0350000 0.0350000 0.0500000 0.1000000 0.1000000 1.0000000 0.0000000 0.0000000
0.3864750 -0.0232450 0.4456870 -0.9278379 -0.3729838 0.0000000 0.3242065 -0.8064990 -0.4944183 0.0350000 0.0350000 0.0500000 0.1000000 0.1000000 1.0000000 0.0000000 0.0000000
-0.0244340 -0.0113460 0.5296160 -0.4272325 0.9041418 0.0000000 -0.3814613 -0.1802512 -0.9066404 0.0350000 0.0350000 0.0500000 0.1000000 0.1000000 1.0000000 0.0000000 0.0000000
-0.3434440 0.0643300 0.2843280 0.9179670 0.3966568 -0.0000000 0.1089945 -0.2522417 -0.9615063 0.0350000 0.0350000 0.0500000 0.1000000 0.1000000 1.0000000 0.0000000 0.0000000
-0.1114480 0.1364480 0.4924460 0.7820800 0.6231780 -0.0000000 -0.5919406 0.7428775 -0.3126330 0.0350000 0.0350000 0.0500000 0.1000000 0.1000000 1.0000000 0.0000000 0.0000000
0.1768000 -0.2064630 0.1872780 -0.7611718 -0.6485503 0.0000000 -0.4267527 0.5008589 -0.7530090 0.0350000 0.0350000 0.0500000 0.1000000 0.1000000 1.0000000 0.0000000 0.0000000
-0.0784640 -0.2396620 0.4224880 -0.9529286 0.3031949 0.0000000 -0.1244091 -0.3910124 -0.9119384 0.0350000 0.0350000 0.0500000 0.1000000 0.1000000 1.0000000 0.0000000 0.0000000
0.0226300 0.1015810 0.1212360 0.9999809 -0.0000000 0.0061826 0.0001784 -0.9995834 -0.0288625 0.0350000 0.0350000 0.0500000 0.1000000 0.1000000 1.0000000 0.0000000 0.0000000
0.0727960 0.2561420 0.3886170 0.9640826 -0.2656027 0.0000000 0.1012058 0.3673560 -0.9245577 0.0350000 0.0350000 0.0500000 0.1000000 0.1000000 1.0000000 0.0000000 0.0000000
0.0016780 -0.1100910 0.1214470 0.9999999 -0.0000000 0.0004573 -0.0000151 -0.9994520 0.0331010 0.0350000 0.0350000 0.0500000 0.1000000 0.1000000 1.0000000 0.0000000 0.0000000
0.3825400 0.0107130 0.4155020 0.4345256 0.9006595 -0.0000000 0.8369577 -0.4037925 -0.3693960 0.0350000 0.0350000 0.0500000 0.1000000 0.1000000 1.0000000 0.0000000 0.0000000
-0.1412960 0.0988580 0.4934940 0.5662683 0.8242210 -0.0000000 -0.7908912 0.5433695 -0.2814973 0.0350000 0.0350000 0.0500000 0.1000000 0.1000000 1.0000000 0.0000000 0.0000000
0.3174390 0.0034850 0.2261000 0.1050955 -0.9944621 0.0000000 -0.8786274 -0.0928540 -0.4683930 0.0350000 0.0350000 0.0500000 0.1000000 0.1000000 1.0000000 0.0000000 0.0000000
0.2535940 0.1469880 0.3097180 0.4964430 -0.8680693 0.0000000 0.1948113 0.1114113 -0.9744927 0.0350000 0.0350000 0.0500000 0.1000000 0.1000000 1.0000000 0.0000000 0.0000000
-0.2375880 -0.1534980 0.2015310 -0.5382712 0.8427717 0.0000000 0.4668525 0.2981748 -0.8325506 0.0350000 0.0350000 0.0500000 0.1000000 0.1000000 1.0000000 0.0000000 0.0000000
0.0825690 0.0252450 0.5083650 0.2904765 -0.9568821 0.0000000 0.9423087 0.2860525 -0.1738626 0.0350000 0.0350000 0.0500000 0.1000000 0.1000000 1.0000000 0.0000000 0.0000000
0.0492310 -0.2363250 0.4445300 -0.9803429 -0.1973015 0.0000000 0.0833230 -0.4140115 -0.9064501 0.0350000 0.0350000 0.0500000 0.1000000 0.1000000 1.0000000 0.0000000 0.0000000
0.1628650 -0.1419160 0.4924460 -0.6552586 -0.7554046 0.0000000 0.6005556 -0.5209383 -0.6065940 0.0350000 0.0350000 0.0500000 0.1000000 0.1000000 1.0000000 0.0000000 0.0000000
-0.1089460 0.2755210 0.2926730 0.9328388 0.3602941 -0.0000000 -0.0603492 0.1562504 -0.9858721 0.0350000 0.0350000 0.0500000 0.1000000 0.1000000 1.0000000 0.0000000 0.0000000
0.0612180 0.2884530 0.2988250 0.9797673 -0.2001402 0.0000000 0.0379976 0.1860138 -0.9818121 0.0350000 0.0350000 0.0500000 0.1000000 0.1000000 1.0000000 0.0000000 0.0000000
0.1081520 -0.1173610 0.4964730 -0.7371204 -0.6757614 0.0000000 0.6609552 -0.7209698 -0.2081843 0.0350000 0.0350000 0.0500000 0.1000000 0.1000000 1.0000000 0.0000000 0.0000000
-0.2051330 -0.1936170 0.1999210 -0.6856247 0.7279552 0.0000000 0.4122372 0.3882656 -0.8242028 0.0350000 0.0350000 0.0500000 0.1000000 0.1000000 1.0000000 0.0000000 0.0000000
0.2119090 -0.1690110 0.1862940 -0.6203938 -0.7842904 0.0000000 -0.5204334 0.4116761 -0.7481122 0.0350000 0.0350000 0.0500000 0.1000000 0.1000000 1.0000000 0.0000000 0.0000000
-0.3651060 -0.0152330 0.2657830 -0.1888804 0.9820001 0.0000000 0.6462468 0.1243007 -0.7529372 0.0350000 0.0350000 0.0500000 0.1000000 0.1000000 1.0000000 0.0000000 0.0000000
0.0543370 -0.0706220 0.5079420 -0.7914721 -0.6112053 0.0000000 0.6022755 -0.7799085 -0.1703143 0.0350000 0.0350000 0.0500000 0.1000000 0.1000000 1.0000000 0.0000000 0.0000000
-0.0259400 -0.2656040 0.1831310 -0.9958185 0.0913540 0.0000000 0.0622218 0.6782580 -0.7321847 0.0350000 0.0350000 0.0500000 0.1000000 0.1000000 1.0000000 0.0000000 0.0000000
-0.3714060 0.0100230 0.4241280 0.1988642 -0.9800270 0.0000000 0.3511563 0.0712556 -0.9336016 0.0350000 0.0350000 0.0500000 0.1000000 0.1000000 1.0000000 0.0000000 0.0000000
-0.2611700 0.1262060 0.2140260 0.4282547 0.9036581 -0.0000000 0.3977035 -0.1884766 -0.8979468 0.0350000 0.0350000 0.0500000 0.1000000 0.1000000 1.0000000 0.0000000 0.0000000
0.0358280 -0.2753720 0.3586030 -0.9923235 -0.1236694 0.0000000 0.0417667 -0.3351364 -0.9412434 0.0350000 0.0350000 0.0500000 0.1000000 0.1000000 1.0000000 0.0000000 0.0000000
0.2667750 0.1067760 0.3301190 0.3643926 -0.9312454 0.0000000 0.2605727 0.1019610 -0.9600551 0.0350000 0.0350000 0.0500000 0.1000000 0.1000000 1.0000000 0.0000000 0.0000000
0.4454200 0.0000840 0.4133280 0.0016835 -0.9999986 0.0000000 0.3789075 0.0006379 -0.9254343 0.0350000 0.0350000 0.0500000 0.1000000 0.1000000 1.0000000 0.0000000 0.0000000
0.0148110 0.2645050 0.1810310 0.9986107 -0.0526947 0.0000000 -0.0365201 -0.6920881 -0.7208886 0.0350000 0.0350000 0.0500000 0.1000000 0.1000000 1.0000000 0.0000000 0.0000000
-0.2424730 0.0264120 0.4385280 0.1040171 0.9945755 -0.0000000 -0.4175985 0.0436743 -0.9075814 0.0350000 0.0350000 0.0500000 0.1000000 0.1000000 1.0000000 0.0000000 0.0000000
-0.0655910 0.0734580 0.5063670 0.7450112 0.6670520 -0.0000000 -0.6586232 0.7355974 -0.1584674 0.0350000 0.0350000 0.0500000 0.1000000 0.1000000 1.0000000 0.0000000 0.0000000
-0.3928520 0.0317090 0.4345790 0.9213423 -0.3887522 0.0000000 0.1316198 0.3119389 -0.9409412 0.0350000 0.0350000 0.0500000 0.1000000 0.1000000 1.0000000 0.0000000 0.0000000
0.2665970 -0.0155890 0.3856540 -0.0558096 -0.9984414 0.0000000 0.3769217 -0.0210687 -0.9260055 0.0350000 0.0350000 0.0500000 0.1000000 0.1000000 1.0000000 0.0000000 0.0000000
-0.1742730 0.2252610 0.3413610 0.7927362 0.6095649 -0.0000000 -0.1869188 0.2430869 -0.9518246 0.0350000 0.0350000 0.0500000 0.1000000 0.1000000 1.0000000 0.0000000 0.0000000
0.0574300 0.0695880 0.1209560 0.9998817 -0.0000000 0.0153797 0.0002907 -0.9998214 -0.0188968 0.0350000 0.0350000 0.0500000 0.1000000 0.1000000 1.0000000 0.0000000 0.0000000
-0.4529670 0.0068760 0.4517510 0.2421130 0.9702481 -0.0000000 0.6773301 -0.1690191 -0.7160003 0.0350000 0.0350000 0.0500000 0.1000000 0.1000000 1.0000000 0.0000000 0.0000000
0.2905250 -0.0399540 0.3062160 -0.1302783 -0.9914775 0.0000000 0.2109308 -0.0277159 -0.9771080 0.0350000 0.0350000 0.0500000 0.1000000 0.1000000 1.0000000 0.0000000 0.0000000
0.2310450 -0.0911210 0.1650670 -0.3597449 -0.9330507 0.0000000 -0.7081423 0.2730298 -0.6511445 0.0350000 0.0350000 0.0500000 0.1000000 0.1000000 1.0000000 0.0000000 0.0000000
-0.0843320 -0.2702300 0.3446830 -0.9570436 0.2899440 0.0000000 -0.0905040 -0.2987345 -0.9500351 0.0350000 0.0350000 0.0500000 0.1000000 0.1000000 1.0000000 0.0000000 0.0000000
0.3907210 -0.0060010 0.3385440 -0.1205079 0.9927124 0.0000000 -0.4563330 -0.0553954 -0.8880831 0.0350000 0.0350000 0.0500000 0.1000000 0.1000000 1.0000000 0.0000000 0.0000000
0.2765690 -0.1051210 0.2961020 -0.3477101 -0.9376021 0.0000000 0.1696610 -0.0629188 -0.9834919 0.0350000 0.0350000 0.0500000 0.1000000 0.1000000 1.0000000 0.0000000 0.0000000
-0.2175210 0.1874680 0.2086580 0.6501873 0.7597739 -0.0000000 0.3733369 -0.3194884 -0.8709459 0.0350000 0.0350000 0.0500000 0.1000000 0.1000000 1.0000000 0.0000000 0.0000000
0.2308880 0.1359750 0.3857800 0.5025607 -0.8645419 0.0000000 0.3273588 0.1902946 -0.9255399 0.0350000 0.0350000 0.0500000 0.1000000 0.1000000 1.0000000 0.0000000 0.0000000
-0.2386700 -0.1036720 0.4033230 -0.3920137 0.9199594 0.0000000 -0.3646279 -0.1553755 -0.9180985 0.0350000 0.0350000 0.0500000 0.1000000 0.1000000 1.0000000 0.0000000 0.0000000
0.0206610 -0.0951010 0.5065120 -0.9774171 -0.2113191 0.0000000 0.2085973 -0.9648281 -0.1599808 0.0350000 0.0350000 0.0500000 0.1000000 0.1000000 1.0000000 0.0000000 0.0000000
-0.2353040 -0.1757930 0.2202010 -0.5957576 0.8031643 0.0000000 0.3046950 0.2260115 -0.9252458 0.0350000 0.0350000 0.0500000 0.1000000 0.1000000 1.0000000 0.0000000 0.0000000
0.1293580 0.2427490 0.3688040 0.8855042 -0.4646313 0.0000000 0.1646700 0.3138316 -0.9350901 0.0350000 0.0350000 0.0500000 0.1000000 0.1000000 1.0000000 0.0000000 0.0000000
0.1581280 -0.0977750 0.1262700 -0.5142394 -0.8576467 0.0000000 -0.8505993 0.5100138 -0.1279326 0.0350000 0.0350000 0.0500000 0.1000000 0.1000000 1.0000000 0.0000000 0.0000000
0.0219410 -0.0897370 0.1210050 0.9999836 -0.0000000 0.0057317 -0.0001413 -0.9996962 0.0246466 0.0350000 0.0350000 0.0500000 0.1000000 0.1000000 1.0000000 0.0000000 0.0000000
-0.2467750 -0.0497100 0.4220950 -0.1905690 0.9816738 0.0000000 -0.4027522 -0.0781849 -0.9119637 0.0350000 0.0350000 0.0500000 0.1000000 0.1000000 1.0000000 0.0000000 0.0000000
-0.0662370 -0.0352720 0.1206550 0.9998588 0.0000000 -0.0168047 0.0001475 -0.9999615 0.0087768 0.0350000 0.0350000 0.0500000 0.1000000 0.1000000 1.0000000 0.0000000 0.0000000
-0.2374500 -0.0491850 0.1603640 -0.1954091 0.9807218 0.0000000 0.7524052 0.1499170 -0.6414136 0.0350000 0.0350000 0.0500000 0.1000000 0.1000000 1.0000000 0.0000000 0.0000000
-0.2479720 -0.0706640 0.4085230 -0.2662655 0.9638997 0.0000000 -0.3865972 -0.1067927 -0.9160447 0.0350000 0.0350000 0.0500000 0.1000000 0.1000000 1.0000000 0.0000000 0.0000000
-0.0250220 0.2789290 0.3507920 0.9963126 0.0857972 -0.0000000 -0.0277605 0.3223659 -0.9462080 0.0350000 0.0350000 0.0500000 0.1000000 0.1000000 1.0000000 0.0000000 0.0000000
0.1632700 0.2453740 0.3029580 0.8350464 -0.5501795 0.0000000 0.1118613 0.1697799 -0.9791128 0.0350000 0.0350000 0.0500000 0.1000000 0.1000000 1.0000000 0.0000000 0.0000000
0.1473540 0.2472630 0.3294840 0.8617725 -0.5072949 0.0000000 0.1412978 0.2400311 -0.9604270 0.0350000 0.0350000 0.0500000 0.1000000 0.1000000 1.0000000 0.0000000 0.0000000
-0.2100480 0.1780450 0.3671180 0.6453196 0.7639127 -0.0000000 -0.2696680 0.2278036 -0.9356199 0.0350000 0.0350000 0.0500000 0.1000000 0.1000000 1.0000000 0.0000000 0.0000000
-0.3243010 0.0179470 0.3471740 0.3460439 -0.9382183 0.0000000 0.7952137 0.2932994 -0.5306700 0.0350000 0.0350000 0.0500000 0.1000000 0.1000000 1.0000000 0.0000000 0.0000000
0.2769130 0.0780160 0.3282310 0.2634361 -0.9646769 0.0000000 0.2652602 0.0724378 -0.9614519 0.0350000 0.0350000 0.0500000 0.1000000 0.1000000 1.0000000 0.0000000 0.0000000
0.1249890 -0.2083090 0.4422780 -0.8595435 -0.5110625 0.0000000 0.2158963 -0.3631107 -0.9063881 0.0350000 0.0350000 0.0500000 0.1000000 0.1000000 1.0000000 0.0000000 0.0000000
0.0045310 0.2842560 0.3399550 0.9998839 -0.0152374 0.0000000 0.0046079 0.3023738 -0.9531783 0.0350000 0.0350000 0.0500000 0.1000000 0.1000000 1.0000000 0.0000000 0.0000000
-0.3569000 0.0302090 0.3759740 0.4580338 -0.8889348 0.0000000 0.4437634 0.2286542 -0.8664821 0.0350000 0.0350000 0.0500000 0.1000000 0.1000000 1.0000000 0.0000000 0.0000000
0.1500370 0.0645200 0.4956980 0.3871879 -0.9220008 0.0000000 0.8994983 0.3777381 -0.2195833 0.0350000 0.0350000 0.0500000 0.1000000 0.1000000 1.0000000 0.0000000 0.0000000
0.0752800 0.2468900 0.4084550 0.9588814 -0.2838073 0.0000000 0.1137488 0.3843157 -0.9161674 0.0350000 0.0350000 0.0500000 0.1000000 0.1000000 1.0000000 0.0000000 0.0000000
0.0893530 -0.2081040 0.1455770 -0.9205348 -0.3906607 0.0000000 -0.2107685 0.4966452 -0.8419739 0.0350000 0.0350000 0.0500000 0.1000000 0.1000000 1.0000000 0.0000000 0.0000000
-0.2889470 0.0634630 0.2930720 0.2069845 0.9783442 -0.0000000 -0.1652110 0.0349531 -0.9856387 0.0350000 0.0350000 0.0500000 0.1000000 0.1000000 1.0000000 0.0000000 0.0000000
-0.1632310 -0.2419880 0.2171670 -0.8315945 0.5553833 0.0000000 0.2279365 0.3412971 -0.9118998 0.0350000 0.0350000 0.0500000 0.1000000 0.1000000 1.0000000 0.0000000 0.0000000
-0.2773560 0.0054270 0.3597650 0.0187358 0.9998245 -0.0000000 -0.3394395 0.0063608 -0.9406064 0.0350000 0.0350000 0.0500000 0.1000000 0.1000000 1.0000000 0.0000000 0.0000000
-0.0295900 0.1651330 0.1244260 0.9861535 0.1658352 -0.0000000 0.1652284 -0.9825454 -0.0854644 0.0350000 0.0350000 0.0500000 0.1000000 0.1000000 1.0000000 0.0000000 0.0000000
-0.0616110 -0.2928580 0.2603670 -0.9801224 0.1983939 0.0000000 -0.0010539 -0.0052064 -0.9999859 0.0350000 0.0350000 0.0500000 0.1000000 0.1000000 1.0000000 0.0000000 0.0000000
0.2020140 0.1885200 0.3653210 0.6817138 -0.7316190 0.0000000 0.2562510 0.2387716 -0.9366555 0.0350000 0.0350000 0.0500000 0.1000000 0.1000000 1.0000000 0.0000000 0.0000000
-0.0564930 0.0136100 0.1203260 0.9999201 0.0000000 -0.0126421 -0.0000371 -0.9999957 -0.0029358 0.0350000 0.0350000 0.0500000 0.1000000 0.1000000 1.0000000 0.0000000 0.0000000
-0.1486690 -0.0521960 0.1237200 -0.3208978 0.9471138 0.0000000 0.9446326 0.3200572 -0.0723377 0.0350000 0.0350000 0.0500000 0.1000000 0.1000000 1.0000000 0.0000000 0.0000000
-0.2964050 0.0228680 0.3356080 0.7047192 -0.7094863 0.0000000 0.6708325 0.6663252 -0.3255678 0.0350000 0.0350000 0.0500000 0.1000000 0.1000000 1.0000000 0.0000000 0.0000000
0.1823680 -0.1697410 0.1652300 -0.6807682 -0.7324989 0.0000000 -0.5559841 0.5167192 -0.6510629 0.0350000 0.0350000 0.0500000 0.1000000 0.1000000 1.0000000 0.0000000 0.0000000
0.1324100 0.2677830 0.2799090 0.8994757 -0.4369707 0.0000000 0.0509779 0.1049346 -0.9931717 0.0350000 0.0350000 0.0500000 0.1000000 0.1000000 1.0000000 0.0000000 0.0000000
0.2409930 0.1569290 0.3305900 0.5418495 -0.8404755 0.0000000 0.2363906 0.1523996 -0.9596322 0.0350000 0.0350000 0.0500000 0.1000000 0.1000000 1.0000000 0.0000000 0.0000000
-0.2515900 -0.0235770 0.4189730 -0.0900945 0.9959332 0.0000000 -0.4066055 -0.0367825 -0.9128631 0.0350000 0.0350000 0.0500000 0.1000000 0.1000000 1.0000000 0.0000000 0.0000000
0.0838010 0.1915380 0.4821290 -0.9186825 0.3949967 0.0000000 0.1332707 0.3099608 -0.9413624 0.0350000 0.0350000 0.0500000 0.1000000 0.1000000 1.0000000 0.0000000 0.0000000
-0.2249070 -0.0567170 0.1516380 -0.2379576 0.9712755 0.0000000 0.7174239 0.1757652 -0.6740991 0.0350000 0.0350000 0.0500000 0.1000000 0.1000000 1.0000000 0.0000000 0.0000000
-0.2592460 0.0046990 0.2117270 0.1713085 0.9852174 -0.0000000 0.9493109 -0.1650651 -0.2675114 0.0350000 0.0350000 0.0500000 0.1000000 0.1000000 1.0000000 0.0000000 0.0000000
0.4421110 -0.0013800 0.4201920 -0.0298332 -0.9995549 0.0000000 0.5173097 -0.0154399 -0.8556590 0.0350000 0.0350000 0.0500000 0.1000000 0.1000000 1.0000000 0.0000000 0.0000000
-0.4458110 0.0163250 0.4831140 -0.9865151 0.1636702 0.0000000 0.0141892 0.0855249 -0.9962350 0.0350000 0.0350000 0.0500000 0.1000000 0.1000000 1.0000000 0.0000000 0.0000000
-0.0047810 -0.0746580 0.1206580 0.9999995 0.0000000 -0.0010212 0.0000194 -0.9998193 0.0190080 0.0350000 0.0350000 0.0500000 0.1000000 0.1000000 1.0000000 0.0000000 0.0000000
-0.0219890 0.2261000 0.1472590 0.9954972 0.0947912 -0.0000000 0.0590697 -0.6203500 -0.7820976 0.0350000 0.0350000 0.0500000 0.1000000 0.1000000 1.0000000 0.0000000 0.0000000
-0.4980580 0.0189820 0.4885030 0.8842960 0.4669268 -0.0000000 0.0994685 -0.1883798 -0.9770461 0.0350000 0.0350000 0.0500000 0.1000000 0.1000000 1.0000000 0.0000000 0.0000000
0.0078270 0.1497410 0.4981710 0.9988581 -0.0477762 0.0000000 0.0469589 0.9817718 -0.1841713 0.0350000 0.0350000 0.0500000 0.1000000 0.1000000 1.0000000 0.0000000 0.0000000
-0.1500080 -0.0204490 0.1233280 -0.1228152 0.9924296 0.0000000 0.9903245 0.1225547 -0.0650978 0.0350000 0.0350000 0.0500000 0.1000000 0.1000000 1.0000000 0.0000000 0.0000000
-0.0388930 0.2421200 0.1623210 0.9884298 0.1516791 -0.0000000 0.1157042 -0.7539961 -0.6466085 0.0350000 0.0350000 0.0500000 0.1000000 0.1000000 1.0000000 0.0000000 0.0000000
0.1641430 0.0115870 0.4953840 0.0671871 -0.9977404 0.0000000 0.9722260 0.0654690 -0.2247007 0.0350000 0.0350000 0.0500000 0.1000000 0.1000000 1.0000000 0.0000000 0.0000000
0.2509920 0.1123950 0.1914350 0.4010683 -0.9160482 0.0000000 -0.5771916 -0.2527086 -0.7765232 0.0350000 0.0350000 0.0500000 0.1000000 0.1000000 1.0000000 0.0000000 0.0000000
0.2462920 -0.0198510 0.4544340 -0.9999342 -0.0114748 0.0000000 0.0108161 -0.9425291 -0.3339490 0.0350000 0.0350000 0.0500000 0.1000000 0.1000000 1.0000000 0.0000000 0.0000000
-0.0584870 0.2476030 0.4157250 0.9748125 0.2230259 -0.0000000 -0.0906239 0.3961032 -0.9137229 0.0350000 0.0350000 0.0500000 0.1000000 0.1000000 1.0000000 0.0000000 0.0000000
0.1786220 0.0492200 0.4888400 0.2413094 -0.9704482 0.0000000 0.8354659 0.2077450 -0.5087620 0.0350000 0.0350000 0.0500000 0.1000000 0.1000000 1.0000000 0.0000000 0.0000000
-0.0494740 0.2236820 0.1488560 0.9770924 0.2128153 -0.0000000 0.1420167 -0.6520371 -0.7447677 0.0350000 0.0350000 0.0500000 0.1000000 0.1000000 1.0000000 0.0000000 0.0000000
-0.1143470 0.1971050 0.4743450 0.8677115 0.4970681 -0.0000000 -0.2244273 0.3917735 -0.8922701 0.0350000 0.0350000 0.0500000 0.1000000 0.1000000 1.0000000 0.0000000 0.0000000
0.0829050 -0.2787700 0.3180090 -0.9608368 -0.2771147 0.0000000 0.0692017 -0.2399421 -0.9683176 0.0350000 0.0350000 0.0500000 0.1000000 0.1000000 1.0000000 0.0000000 0.0000000
-0.0490020 0.2724580 0.1938530 0.9855326 0.1694860 -0.0000000 0.1035200 -0.6019515 -0.7917942 0.0350000 0.0350000 0.0500000 0.1000000 0.1000000 1.0000000 0.0000000 0.0000000
0.1202110 -0.1638250 0.1288170 -0.8083962 -0.5886388 0.0000000 -0.5754951 0.7903456 -0.2101408 0.0350000 0.0350000 0.0500000 0.1000000 0.1000000 1.0000000 0.0000000 0.0000000
-0.1627040 -0.1028360 0.4842240 -0.5250634 0.8510631 0.0000000 -0.5789758 -0.3571991 -0.7329364 0.0350000 0.0350000 0.0500000 0.1000000 0.1000000 1.0000000 0.0000000 0.0000000
-0.2884400 -0.0151600 0.3227850 -0.0502912 0.9987346 0.0000000 -0.2611111 -0.0131482 -0.9652192 0.0350000 0.0350000 0.0500000 0.1000000 0.1000000 1.0000000 0.0000000 0.0000000
0.0553980 0.1232660 0.5007100 0.9147468 -0.4040275 0.0000000 0.3987366 0.9027677 -0.1613058 0.0350000 0.0350000 0.0500000 0.1000000 0.1000000 1.0000000 0.0000000 0.0000000
0.2628190 -0.0461680 0.1822700 -0.1655929 -0.9861942 0.0000000 -0.6758822 0.1134881 -0.7282196 0.0350000 0.0350000 0.0500000 0.1000000 0.1000000 1.0000000 0.0000000 0.0000000
-0.2243840 -0.1962380 0.2834240 -0.6570963 0.7538067 0.0000000 -0.0987449 -0.0860763 -0.9913830 0.0350000 0.0350000 0.0500000 0.1000000 0.1000000 1.0000000 0.0000000 0.0000000
0.1573940 -0.2517940 0.2900410 -0.8507002 -0.5256511 0.0000000 0.0826807 -0.1338083 -0.9875521 0.0350000 0.0350000 0.0500000 0.1000000 0.1000000 1.0000000 0.0000000 0.0000000
-0.2402140 -0.1744270 0.2964270 -0.5845723 0.8113416 0.0000000 -0.1477973 -0.1064881 -0.9832681 0.0350000 0.0350000 0.0500000 0.1000000 0.1000000 1.0000000 0.0000000 0.0000000
-0.2761390 0.0699370 0.3373020 0.2378639 0.9712985 -0.0000000 -0.2884068 0.0706287 -0.9548995 0.0350000 0.0350000 0.0500000 0.1000000 0.1000000 1.0000000 0.0000000 0.0000000
-0.0056790 -0.2083800 0.4942650 0.9995320 -0.0305899 0.0000000 0.0263457 0.8608513 -0.5081740 0.0350000 0.0350000 0.0500000 0.1000000 0.1000000 1.0000000 0.0000000 0.0000000
-0.3953510 -0.0017940 0.3151900 -0.0184443 0.9998299 0.0000000 0.3765789 0.0069469 -0.9263585 0.0350000 0.0350000 0.0500000 0.1000000 0.1000000 1.0000000 0.0000000 0.0000000
0.1751570 -0.1844070 0.4183500 -0.7252518 -0.6884838 0.0000000 0.2813420 -0.2963669 -0.9126956 0.0350000 0.0350000 0.0500000 0.1000000 0.1000000 1.0000000 0.0000000 0.0000000
0.1953870 0.1914190 0.3733800 0.6997063 -0.7144306 0.0000000 0.2579608 0.2526442 -0.9325380 0.0350000 0.0350000 0.0500000 0.1000000 0.1000000 1.0000000 0.0000000 0.0000000
0.0522070 0.2808460 0.3358620 0.9844819 -0.1754864 0.0000000 0.0513905 0.2883015 -0.9561596 0.0350000 0.0350000 0.0500000 0.1000000 0.1000000 1.0000000 0.0000000 0.0000000
-0.2753140 0.0926480 0.3217220 0.3108608 0.9504555 -0.0000000 -0.2458200 0.0803991 -0.9659754 0.0350000 0.0350000 0.0500000 0.1000000 0.1000000 1.0000000 0.0000000 0.0000000
-0.3848700 -0.0216200 0.4441150 -0.6318508 -0.7750900 0.0000000 0.3400825 -0.2772341 -0.8986018 0.0350000 0.0350000 0.0500000 0.1000000 0.1000000 1.0000000 0.0000000 0.0000000
0.2797030 0.0201820 0.4541690 0.9994472 -0.0332461 0.0000000 0.0311746 0.9371731 -0.3474689 0.0350000 0.0350000 0.0500000 0.1000000 0.1000000 1.0000000 0.0000000 0.0000000
-0.2513250 0.1487780 0.3141150 0.5045593 0.8633771 -0.0000000 -0.2056418 0.1201775 -0.9712203 0.0350000 0.0350000 0.0500000 0.1000000 0.1000000 1.0000000 0.0000000 0.0000000
0.0693190 -0.1349430 0.1233070 -0.8931895 -0.4496805 0.0000000 -0.4487397 0.8913208 -0.0646526 0.0350000 0.0350000 0.0500000 0.1000000 0.1000000 1.0000000 0.0000000 0.0000000
-0.2542480 -0.1471740 0.2224740 -0.4955075 0.8686036 0.0000000 0.3091621 0.1763660 -0.9345126 0.0350000 0.0350000 0.0500000 0.1000000 0.1000000 1.0000000 0.0000000 0.0000000
0.4247800 -0.0053360 0.3138530 -0.1131075 -0.9935828 0.0000000 -0.5528773 0.0629385 -0.8308823 0.0350000 0.0350000 0.0500000 0.1000000 0.1000000 1.0000000 0.0000000 0.0000000
-0.2185520 0.1191120 0.1650480 0.4730877 0.8810153 -0.0000000 0.6685293 -0.3589869 -0.6513041 0.0350000 0.0350000 0.0500000 0.1000000 0.1000000 1.0000000 0.0000000 0.0000000
-0.1569450 0.1998200 0.4186240 0.7877445 0.6160021 -0.0000000 -0.2518875 0.3221141 -0.9125761 0.0350000 0.0350000 0.0500000 0.1000000 0.1000000 1.0000000 0.0000000 0.0000000
-0.1390650 0.2596370 0.3053130 0.8845605 0.4664255 -0.0000000 -0.0980753 0.1859965 -0.9776434 0.0350000 0.0350000 0.0500000 0.1000000 0.1000000 1.0000000 0.0000000 0.0000000
0.0317950 -0.0273680 0.1202350 0.9999750 -0.0000000 0.0070701 -0.0000429 -0.9999816 0.0060628 0.0350000 0.0350000 0.0500000 0.1000000 0.1000000 1.0000000 0.0000000 0.0000000
0.2519000 -0.1590250 0.2352380 -0.5294833 -0.8483204 0.0000000 -0.1847506 0.1153130 -0.9759970 0.0350000 0.0350000 0.0500000 0.1000000 0.1000000 1.0000000 0.0000000 0.0000000
-0.0456260 0.0038750 0.5877220 0.0793263 0.9968487 -0.0000000 -0.9092665 0.0723568 -0.4098766 0.0350000 0.0350000 0.0500000 0.1000000 0.1000000 1.0000000 0.0000000 0.0000000
-0.2559170 -0.1188540 0.3473060 -0.4147446 0.9099379 0.0000000 -0.2890099 -0.1317291 -0.9482198 0.0350000 0.0350000 0.0500000 0.1000000 0.1000000 1.0000000 0.0000000 0.0000000
-0.2976670 -0.0698650 0.2975280 -0.9995548 -0.0298376 0.0000000 0.0097837 -0.3277531 -0.9447128 0.0350000 0.0350000 0.0500000 0.1000000 0.1000000 1.0000000 0.0000000 0.0000000
