ply
format ascii 1.0
comment 2D Gaussian splats: pk, tu, tv, scales, diffuse albedo, opacity
element vertex 271
property float x
property float y
property float z
property float tu_x
property float tu_y
property float tu_z
property float tv_x
property float tv_y
property float tv_z
property float su
property float sv
property float albedo_r
property float albedo_g
property float albedo_b
property float opacity
property float beta
property float shape
end_header
-0.3388992 0.0266492 0.2809983 0.9249417 0.3800014 -0.0090449 0.1053893 -0.2792401 -0.9544203 0.0500000 0.0500000 0.1171950 0.1293468 0.0452351 1.0000000 -0.2500000 0.0000000
-0.1412830 0.0818409 0.5982106 0.8038275 0.5942865 -0.0261711 -0.5697725 0.7565358 -0.3209560 0.0500000 0.0500000 0.0000000 0.0000000 0.0000000 0.9087564 -0.2500000 0.0000000
0.1341892 -0.1569356 0.2189770 -0.7757321 -0.6310427 0.0049771 -0.4287193 0.5211984 -0.7379377 0.0500000 0.0500000 0.0000000 0.2886856 0.1971284 1.0000000 -0.2500000 0.0000000
-0.0485975 -0.1330146 0.4535734 -0.9403005 0.3391988 0.0279145 -0.1502468 -0.3401072 -0.9283065 0.0500000 0.0500000 0.0000000 0.1577378 0.5364914 0.7513196 -0.2500000 0.0000000
0.0345902 0.0951761 0.1403508 0.9985710 0.0341232 -0.0411289 0.0337524 -0.9993834 -0.0096756 0.0500000 0.0500000 0.0467450 0.6556440 0.1416857 0.9295480 -0.2500000 0.0000000
0.0153095 0.3299374 0.4157612 0.9647038 -0.2627356 0.0177927 0.1053451 0.3231127 -0.9404789 0.0500000 0.0500000 0.1723726 0.1680334 0.2340756 1.0000000 -0.2500000 0.0000000
0.0572292 -0.0291732 0.1648450 0.9965626 0.0806880 0.0187710 0.0806545 -0.9967389 0.0025332 0.0500000 0.0500000 0.0000000 0.3949524 0.0307052 0.8777505 -0.2500000 0.0000000
0.4249739 0.0386578 0.4472607 0.4026941 0.9146722 0.0348161 0.8554153 -0.3625250 -0.3699192 0.0500000 0.0500000 0.0000000 0.0000000 0.0000000 1.0000000 -0.2500000 0.0000000
-0.0787083 0.1341467 0.5359040 0.5817486 0.8130749 0.0218569 -0.7552507 0.5499610 -0.3565660 0.0500000 0.0500000 0.0717894 0.6431909 0.1521295 1.0000000 -0.2500000 0.0000000
0.2759088 -0.0069481 0.2756732 0.0991434 -0.9950383 0.0083272 -0.8787912 -0.0914804 -0.4683560 0.0500000 0.0500000 0.4776072 0.0000000 0.1533051 1.0000000 -0.2500000 0.0000000
0.2250743 0.1996198 0.3162915 0.4778388 -0.8783018 -0.0160021 0.1564678 0.1030229 -0.9822953 0.0500000 0.0500000 0.5381843 0.1347832 0.0000000 0.9635942 -0.2500000 0.0000000
-0.2326362 -0.1586671 0.2347919 -0.5490818 0.8357666 0.0018238 0.4681206 0.3093521 -0.8277466 0.0500000 0.0500000 0.0000000 0.0000000 0.2612740 1.0000000 -0.2500000 0.0000000
0.0518768 0.0094848 0.5421700 0.2732349 -0.9610879 0.0406541 0.9473028 0.2614884 -0.1850439 0.0500000 0.0500000 0.0094896 0.0629002 0.0000000 1.0000000 -0.2500000 0.0000000
0.0782120 -0.2153782 0.4243784 -0.9753691 -0.2199615 -0.0164941 0.1061135 -0.4023500 -0.9093153 0.0500000 0.0500000 0.0000000 0.0341007 0.4053244 0.7256701 -0.2500000 0.0000000
0.1576764 -0.1722441 0.4812490 -0.6928859 -0.7210458 -0.0014474 0.5730049 -0.5494058 -0.6081272 0.0500000 0.0500000 0.0000000 0.3910428 0.0000000 1.0000000 -0.2500000 0.0000000
-0.0866347 0.2895898 0.2159557 0.9392824 0.3431433 -0.0011446 -0.0623341 0.1673444 -0.9839260 0.0500000 0.0500000 0.0168471 0.3244358 0.0157669 0.8100740 -0.2500000 0.0000000
0.0461870 0.2674881 0.2652925 0.9756491 -0.2184945 0.0192107 0.0616162 0.1889676 -0.9800483 0.0500000 0.0500000 0.0000000 0.1481227 0.0000000 1.0000000 -0.2500000 0.0000000
0.1318095 -0.1551339 0.5383562 -0.7155599 -0.6985223 0.0063708 0.6894907 -0.7077134 -0.1540919 0.0500000 0.0500000 0.0000000 0.0000000 0.0000000 0.7928864 -0.2500000 0.0000000
-0.2142390 -0.2827408 0.2324437 -0.6956483 0.7166348 0.0500808 0.3548969 0.4034417 -0.8433760 0.0500000 0.0500000 0.4337241 0.0000000 0.3196018 0.8039189 -0.2500000 0.0000000
0.1531411 -0.1338689 0.2207098 -0.6166847 -0.7872048 0.0029356 -0.5395309 0.4199392 -0.7297654 0.0500000 0.0500000 0.0000000 0.0000000 0.0000000 0.5499445 -0.2500000 0.0000000
-0.3757366 -0.0432888 0.3542131 -0.1772357 0.9833946 -0.0390205 0.6765569 0.0929490 -0.7305007 0.0500000 0.0500000 0.0897605 0.0000000 0.0737171 0.7711822 -0.2500000 0.0000000
0.0577526 -0.0967578 0.4915232 -0.7955142 -0.6059168 0.0046897 0.5944174 -0.7818716 -0.1880021 0.0500000 0.0500000 0.0000000 0.0000000 0.0000000 1.0000000 -0.2500000 0.0000000
-0.0296681 -0.2622472 0.1168717 -0.9842294 0.1729317 -0.0372441 0.1442192 0.6625099 -0.7350384 0.0500000 0.0500000 0.0000000 0.0000000 0.4298781 0.8336794 -0.2500000 0.0000000
-0.4151946 -0.0286730 0.4201272 0.2029813 -0.9788898 -0.0239441 0.4027127 0.1057454 -0.9091977 0.0500000 0.0500000 0.0000000 0.2012616 0.1337481 1.0000000 -0.2500000 0.0000000
-0.2529321 0.1126160 0.2096758 0.4015402 0.9158140 0.0070814 0.3748816 -0.1573029 -0.9136299 0.0500000 0.0500000 0.1580602 0.1666170 0.0000000 0.7458903 -0.2500000 0.0000000
0.0170205 -0.2512065 0.3237959 -0.9919584 -0.1252425 -0.0182468 0.0564118 -0.3084547 -0.9495649 0.0500000 0.0500000 0.0000000 0.0000000 0.0000000 0.7814405 -0.2500000 0.0000000
0.2228877 0.0218890 0.3585098 0.3588402 -0.9331323 0.0223133 0.2973432 0.0916193 -0.9503646 0.0500000 0.0500000 0.1800117 0.0000000 0.4342896 1.0000000 -0.2500000 0.0000000
0.4619629 0.0099959 0.4013700 0.0269968 -0.9995516 -0.0129559 0.3737786 0.0221142 -0.9272543 0.0500000 0.0500000 0.0000000 0.0000000 0.0000000 0.7987520 -0.2500000 0.0000000
0.0240431 0.2860338 0.1977728 0.9991836 -0.0378577 0.0141065 -0.0169210 -0.7092166 -0.7047876 0.0500000 0.0500000 0.0000000 0.0000000 0.2583882 0.7538361 -0.2500000 0.0000000
-0.2806483 0.0657657 0.3966801 0.1245973 0.9921899 0.0058866 -0.4320616 0.0595964 -0.8998728 0.0500000 0.0500000 0.1923258 0.3340229 0.0359326 1.0000000 -0.2500000 0.0000000
-0.0716289 0.0755851 0.5499305 0.7394499 0.6729969 -0.0169999 -0.6649081 0.7261427 -0.1749682 0.0500000 0.0500000 0.0000000 0.4330132 0.0036253 0.8379614 -0.2500000 0.0000000
-0.4420097 0.0614254 0.4883865 0.9299903 -0.3627907 0.0591696 0.1693126 0.2798996 -0.9449812 0.0500000 0.0500000 0.0000000 0.2033023 0.2711732 0.8894068 -0.2500000 0.0000000
0.2953879 -0.0275421 0.3055028 -0.0740951 -0.9971986 0.0102385 0.3691238 -0.0369617 -0.9286449 0.0500000 0.0500000 0.0000000 0.4022851 0.0809640 0.6601063 -0.2500000 0.0000000
-0.1244237 0.2988445 0.3550420 0.7669731 0.6407460 -0.0345955 -0.1909868 0.1764762 -0.9655984 0.0500000 0.0500000 0.3271066 0.0000000 0.0000000 0.7822876 -0.2500000 0.0000000
0.0946761 0.1428811 0.1354744 0.9999767 0.0035215 -0.0058532 0.0032902 -0.9992313 -0.0390627 0.0500000 0.0500000 0.0000000 0.5046626 1.0000000 0.9147625 -0.2500000 0.0000000
-0.4010380 0.0327023 0.4433027 0.2838451 0.9587190 -0.0170262 0.6779521 -0.2132130 -0.7035063 0.0500000 0.0500000 0.0000000 0.2207564 0.2198785 0.8110158 -0.2500000 0.0000000
0.2712554 -0.0404556 0.2936075 -0.1190253 -0.9928804 0.0046389 0.2204816 -0.0309860 -0.9748988 0.0500000 0.0500000 0.0000000 0.0000000 0.0838125 0.8949988 -0.2500000 0.0000000
0.2500433 -0.0939426 0.1883592 -0.3643563 -0.9309280 -0.0248522 -0.7083784 0.2943785 -0.6415148 0.0500000 0.0500000 0.2235650 0.0000000 0.0245640 0.8295171 -0.2500000 0.0000000
-0.0918095 -0.3101847 0.3090857 -0.9566343 0.2909141 0.0148260 -0.1134440 -0.3252009 -0.9388156 0.0500000 0.0500000 0.2429874 0.0000000 0.1585515 1.0000000 -0.2500000 0.0000000
0.4330232 0.0089763 0.3536342 -0.0895026 0.9957439 0.0219845 -0.4575318 -0.0214990 -0.8889333 0.0500000 0.0500000 0.2924738 0.0927310 0.0000000 0.8839575 -0.2500000 0.0000000
0.3537671 -0.0898160 0.3036006 -0.3297132 -0.9440447 0.0082947 0.1936315 -0.0762209 -0.9781090 0.0500000 0.0500000 0.1182418 0.4236710 0.0000000 1.0000000 -0.2500000 0.0000000
-0.1916990 0.2053938 0.2211868 0.6494417 0.7603277 0.0112810 0.3697472 -0.3027904 -0.8784105 0.0500000 0.0500000 0.0000000 0.6845887 0.0000000 1.0000000 -0.2500000 0.0000000
0.1840874 0.1826629 0.3498515 0.5442232 -0.8379020 0.0417285 0.3089169 0.1539025 -0.9385544 0.0500000 0.0500000 0.2959519 0.3184514 0.0000000 0.9186516 -0.2500000 0.0000000
-0.2070454 -0.1315035 0.3581768 -0.4331064 0.9012678 0.0116265 -0.3681310 -0.1651026 -0.9149977 0.0500000 0.0500000 0.4711374 0.0000000 0.0000000 0.8865619 -0.2500000 0.0000000
0.0786351 -0.0421014 0.5411629 -0.9689742 -0.2448887 -0.0334433 0.2469176 -0.9531028 -0.1750051 0.0500000 0.0500000 0.3169593 0.0000000 0.0000000 1.0000000 -0.2500000 0.0000000
-0.1991981 -0.1845996 0.2338414 -0.6328200 0.7741946 0.0127090 0.2908743 0.2529054 -0.9227302 0.0500000 0.0500000 0.0000000 0.0000000 0.0766609 0.8944737 -0.2500000 0.0000000
0.1115099 0.2184069 0.4629381 0.8935219 -0.4489882 -0.0053174 0.1554645 0.3204531 -0.9344199 0.0500000 0.0500000 0.0925119 0.0000000 0.8145655 0.9477234 -0.2500000 0.0000000
0.1436733 -0.0714549 0.0713917 -0.5249531 -0.8500519 -0.0428494 -0.8461057 0.5266545 -0.0820982 0.0500000 0.0500000 0.1664075 0.3344378 0.4037734 0.6521914 -0.2500000 0.0000000
-0.0307012 -0.1196492 0.0750663 0.9997981 -0.0111473 0.0167204 -0.0128447 -0.9943777 0.1051092 0.0500000 0.0500000 0.0000000 0.2364194 0.0000000 0.7328732 -0.2500000 0.0000000
-0.2071196 -0.0549605 0.5214039 -0.1925211 0.9812349 0.0106627 -0.4151655 -0.0716015 -0.9069238 0.0500000 0.0500000 0.1163619 0.0000000 0.0000000 0.8649090 -0.2500000 0.0000000
-0.0658521 -0.0689209 0.1022946 0.9986295 -0.0370000 -0.0370165 -0.0386012 -0.9983065 -0.0435201 0.0500000 0.0500000 0.0000000 0.0000000 0.0870744 1.0000000 -0.2500000 0.0000000
-0.2313897 -0.0674648 0.1568920 -0.2295583 0.9731381 0.0174695 0.7502654 0.1883604 -0.6337367 0.0500000 0.0500000 0.0000000 0.3603405 0.0898806 0.5467866 -0.2500000 0.0000000
-0.2345598 -0.0759830 0.4013518 -0.2447203 0.9694650 0.0157979 -0.3558505 -0.0746465 -0.9315569 0.0500000 0.0500000 0.2459686 0.0000000 0.2872149 0.9526558 -0.2500000 0.0000000
-0.0867625 0.3302488 0.3574637 0.9942850 0.1038923 -0.0245723 -0.0544501 0.2955203 -0.9537835 0.0500000 0.0500000 0.3824391 0.0000000 0.0000000 0.5397257 -0.2500000 0.0000000
0.1691883 0.2118819 0.2521536 0.8707192 -0.4902323 0.0389915 0.1465167 0.1829118 -0.9721503 0.0500000 0.0500000 0.0000000 0.0000000 0.0000000 0.9717622 -0.2500000 0.0000000
0.0709959 0.2710473 0.2578930 0.8641560 -0.5016404 -0.0398909 0.0968027 0.2435003 -0.9650579 0.0500000 0.0500000 0.0000000 0.0000000 0.0000000 1.0000000 -0.2500000 0.0000000
-0.1865836 0.1894988 0.3044399 0.6203527 0.7841008 -0.0186659 -0.2761694 0.1960970 -0.9408913 0.0500000 0.0500000 0.1117939 0.0000000 0.1534861 0.8685419 -0.2500000 0.0000000
-0.3689198 0.0113713 0.2975122 0.3725254 -0.9279096 0.0144442 0.7670019 0.2990896 -0.5676738 0.0500000 0.0500000 0.0181451 0.0000000 0.1815752 0.8507731 -0.2500000 0.0000000
0.1954380 0.1540466 0.3294477 0.2460846 -0.9684526 0.0392671 0.2539721 0.0253312 -0.9668798 0.0500000 0.0500000 0.0000000 0.0356105 0.2208887 1.0000000 -0.2500000 0.0000000
0.0660867 -0.2023867 0.3736356 -0.8578415 -0.5121379 0.0426933 0.1867239 -0.3880050 -0.9025443 0.0500000 0.0500000 0.4904555 0.4463355 0.0000000 0.8054142 -0.2500000 0.0000000
-0.0244005 0.2526189 0.3355315 0.9946493 -0.1028401 -0.0098312 0.0233441 0.3164368 -0.9483263 0.0500000 0.0500000 0.1729441 0.0000000 0.4579790 0.9436415 -0.2500000 0.0000000
-0.3804203 0.0521412 0.3883016 0.4510526 -0.8907022 -0.0565784 0.4362731 0.2753446 -0.8566511 0.0500000 0.0500000 0.0000000 0.1213198 0.0000000 0.8160706 -0.2500000 0.0000000
0.1624058 0.0364629 0.4885534 0.3501444 -0.9359504 0.0373595 0.9221805 0.3374499 -0.1889730 0.0500000 0.0500000 0.0000000 0.1987511 0.1919873 0.8186244 -0.2500000 0.0000000
0.1132899 0.2193600 0.4175859 0.9516002 -0.3073187 -0.0035026 0.1092922 0.3490268 -0.9307177 0.0500000 0.0500000 0.0000000 0.0782421 0.2395722 0.6965902 -0.2500000 0.0000000
0.1069192 -0.2502907 0.1115832 -0.9185118 -0.3951947 0.0125435 -0.2118365 0.4650682 -0.8595562 0.0500000 0.0500000 0.4438744 0.2689248 0.0246509 0.9083387 -0.2500000 0.0000000
-0.2784851 0.0139230 0.3047869 0.1850450 0.9824382 -0.0239492 -0.1667320 0.0073690 -0.9859747 0.0500000 0.0500000 0.0000000 0.1778137 0.0000000 0.7427456 -0.2500000 0.0000000
-0.2032346 -0.2238254 0.1843845 -0.8246387 0.5654042 0.0170019 0.2357317 0.3708250 -0.8982869 0.0500000 0.0500000 0.0000000 0.0000000 0.2665206 1.0000000 -0.2500000 0.0000000
-0.2896094 0.0307431 0.3329940 -0.0165797 0.9997767 0.0131043 -0.3377855 0.0067348 -0.9411990 0.0500000 0.0500000 0.0603318 0.1774640 0.0000000 0.6916314 -0.2500000 0.0000000
-0.0084403 0.1481976 0.1014816 0.9849861 0.1708714 -0.0246057 0.1676730 -0.9808370 -0.0992198 0.0500000 0.0500000 0.0000000 0.0000000 0.0000000 0.6231907 -0.2500000 0.0000000
-0.0755926 -0.2745992 0.2562840 -0.9911953 0.1266012 0.0387804 -0.0337118 0.0419367 -0.9985514 0.0500000 0.0500000 0.0000000 0.0000000 0.0000000 0.7211312 -0.2500000 0.0000000
0.2119568 0.1334952 0.3593071 0.6944993 -0.7192064 0.0203187 0.2620294 0.2265251 -0.9380975 0.0500000 0.0500000 0.5067216 0.0000000 0.0359244 1.0000000 -0.2500000 0.0000000
0.0083281 0.0205493 0.1349368 0.9991651 0.0354287 0.0203468 0.0357087 -0.9992701 -0.0135674 0.0500000 0.0500000 0.1918902 0.0000000 0.0000000 0.6980205 -0.2500000 0.0000000
-0.2178734 -0.1468814 0.1467626 -0.3161150 0.9485252 0.0192673 0.9418332 0.3161980 -0.1138819 0.0500000 0.0500000 0.3608648 0.4546688 0.4540320 1.0000000 -0.2500000 0.0000000
-0.2115420 0.0102403 0.3922106 0.7377010 -0.6750195 -0.0120847 0.6373129 0.7021764 -0.3174597 0.0500000 0.0500000 0.2026594 0.0000000 0.2340550 0.8390201 -0.2500000 0.0000000
0.2351436 -0.2522042 0.1171900 -0.6706635 -0.7387655 -0.0666036 -0.4988517 0.5156668 -0.6965880 0.0500000 0.0500000 0.0000000 0.0675297 0.0742896 1.0000000 -0.2500000 0.0000000
0.1488816 0.2232907 0.2724679 0.8967158 -0.4416108 0.0296755 0.0864570 0.1090113 -0.9902736 0.0500000 0.0500000 0.0000000 0.0882403 0.1023541 0.9734348 -0.2500000 0.0000000
0.2847848 0.1364778 0.3693585 0.5480024 -0.8340585 -0.0635589 0.1885037 0.1971673 -0.9620766 0.0500000 0.0500000 0.3089952 0.0170528 0.5955640 1.0000000 -0.2500000 0.0000000
-0.2276388 0.0217301 0.4536120 -0.0694041 0.9972944 -0.0242266 -0.4295839 -0.0517963 -0.9015403 0.0500000 0.0500000 0.3264317 0.7828335 0.2713920 0.9421594 -0.2500000 0.0000000
0.0405749 0.2036051 0.5461606 -0.8974805 0.4407408 -0.0166196 0.1363777 0.2414765 -0.9607758 0.0500000 0.0500000 0.0000000 0.0228477 0.1553360 1.0000000 -0.2500000 0.0000000
-0.2347654 -0.0586544 0.1225392 -0.2201014 0.9747185 0.0384599 0.6871218 0.1829033 -0.7031429 0.0500000 0.0500000 0.0000000 0.0000000 0.3730595 1.0000000 -0.2500000 0.0000000
-0.2291346 -0.0074352 0.1530076 0.1701365 0.9845161 -0.0422092 0.9431700 -0.1751003 -0.2824362 0.0500000 0.0500000 0.0000000 0.3630250 0.0385145 1.0000000 -0.2500000 0.0000000
0.4540578 0.0001819 0.4097616 -0.0280389 -0.9995635 -0.0093020 0.5273979 -0.0068877 -0.8495905 0.0500000 0.0500000 0.0000000 0.3370940 0.6616771 1.0000000 -0.2500000 0.0000000
-0.4526555 0.0476532 0.4526321 -0.9904245 0.1292585 -0.0484929 0.0595497 0.0830941 -0.9947609 0.0500000 0.0500000 0.0000000 0.0000000 0.0679795 0.9207090 -0.2500000 0.0000000
-0.0770325 -0.0237012 0.1212346 0.9998936 -0.0087427 -0.0116803 -0.0084436 -0.9996413 0.0254154 0.0500000 0.0500000 0.0000000 0.0000000 0.0000000 0.9381896 -0.2500000 0.0000000
0.0007274 0.2427249 0.1607151 0.9971355 0.0729984 0.0198018 0.0605500 -0.6135116 -0.7873610 0.0500000 0.0500000 0.3701811 0.0000000 0.0000000 0.8547063 -0.2500000 0.0000000
-0.4824930 0.0590343 0.5176358 0.9177410 0.3971581 -0.0041235 0.0942810 -0.2279233 -0.9691037 0.0500000 0.0500000 0.0000000 0.3094348 0.1386742 0.9047964 -0.2500000 0.0000000
-0.0901476 0.2112228 0.5013350 0.9995267 -0.0039873 -0.0305048 -0.0010786 0.9864137 -0.1642770 0.0500000 0.0500000 0.0000000 0.0915548 0.3116234 1.0000000 -0.2500000 0.0000000
-0.0974069 -0.0419188 0.1006611 -0.0950442 0.9954515 -0.0065553 0.9940005 0.0945435 -0.0549964 0.0500000 0.0500000 0.0000000 0.0000000 0.2441756 0.6963613 -0.2500000 0.0000000
-0.0602402 0.1936036 0.1506007 0.9804320 0.1936359 -0.0354706 0.1171449 -0.7186883 -0.6853935 0.0500000 0.0500000 0.1660730 0.0000000 0.0000000 0.8348093 -0.2500000 0.0000000
0.1406389 0.0053123 0.4290368 0.0712091 -0.9974273 -0.0082531 0.9691986 0.0711447 -0.2357807 0.0500000 0.0500000 0.5058150 0.5062983 0.0000000 0.7978357 -0.2500000 0.0000000
0.3306682 0.1858852 0.1778044 0.3691158 -0.9292809 -0.0138069 -0.6073758 -0.2299554 -0.7604046 0.0500000 0.0500000 0.1680256 0.0097849 0.1645067 0.5404436 -0.2500000 0.0000000
0.2007576 -0.0195073 0.4599059 -0.9997584 0.0090311 -0.0200411 -0.0015838 -0.9389308 -0.3441023 0.0500000 0.0500000 0.0000000 0.0000000 0.0307529 1.0000000 -0.2500000 0.0000000
-0.0541169 0.2289186 0.4593322 0.9735518 0.2265154 -0.0297927 -0.1187464 0.3902819 -0.9130056 0.0500000 0.0500000 0.2498806 0.0000000 0.0989601 1.0000000 -0.2500000 0.0000000
0.1820606 0.1124719 0.4632643 0.2497029 -0.9677729 -0.0326188 0.8036566 0.2259140 -0.5505442 0.0500000 0.0500000 0.2926532 0.1330333 0.0940687 0.8225489 -0.2500000 0.0000000
-0.0345311 0.2410764 0.2196398 0.9783470 0.2066839 0.0109016 0.1444794 -0.6442867 -0.7510129 0.0500000 0.0500000 0.2093711 0.0049781 0.3131472 0.8155324 -0.2500000 0.0000000
-0.0805508 0.1385576 0.5469184 0.8448857 0.5330027 0.0455651 -0.2176179 0.4202633 -0.8809207 0.0500000 0.0500000 0.0000000 0.0499410 0.6489050 1.0000000 -0.2500000 0.0000000
0.0744158 -0.2849605 0.3143281 -0.9637207 -0.2662735 0.0184604 0.0525969 -0.2572594 -0.9649099 0.0500000 0.0500000 0.1023216 0.4890275 0.4287359 0.8063991 -0.2500000 0.0000000
-0.0501537 0.2817714 0.2016374 0.9808627 0.1945934 -0.0064566 0.1064875 -0.5639303 -0.8189280 0.0500000 0.0500000 0.1714895 0.4370942 0.0558620 1.0000000 -0.2500000 0.0000000
0.1747236 -0.1903305 0.0901089 -0.8201612 -0.5715021 -0.0268510 -0.5616985 0.8132387 -0.1521105 0.0500000 0.0500000 0.0000000 0.0000000 0.0000000 1.0000000 -0.2500000 0.0000000
-0.2033295 -0.2617984 0.5096826 -0.5173660 0.8555545 0.0189468 -0.6166120 -0.3573390 -0.7014973 0.0500000 0.0500000 0.0000000 0.1786198 0.1190038 0.9406358 -0.2500000 0.0000000
-0.2657741 -0.0116015 0.3494741 -0.0252820 0.9995536 -0.0159199 -0.2429880 -0.0215918 -0.9697890 0.0500000 0.0500000 0.0294408 0.1702546 0.3019956 0.8862628 -0.2500000 0.0000000
-0.0537969 0.1536915 0.5170624 0.8911878 -0.4533278 0.0166783 0.4476504 0.8728851 -0.1941155 0.0500000 0.0500000 0.2355245 0.0512579 0.0000000 0.9072949 -0.2500000 0.0000000
0.2431971 -0.0411766 0.2734344 -0.1727984 -0.9848249 0.0161461 -0.6822248 0.1078480 -0.7231446 0.0500000 0.0500000 0.1524409 0.0937750 0.4185205 0.6635549 -0.2500000 0.0000000
-0.2511001 -0.1879989 0.3150761 -0.6919321 0.7211584 0.0340659 -0.1488617 -0.0963396 -0.9841539 0.0500000 0.0500000 0.0244514 0.5816296 0.0000000 1.0000000 -0.2500000 0.0000000
0.1253993 -0.2927326 0.2713918 -0.8498128 -0.5265222 -0.0243417 0.0951286 -0.1077878 -0.9896122 0.0500000 0.0500000 0.0000000 0.5222203 0.1235877 0.9299269 -0.2500000 0.0000000
-0.3063969 -0.1945592 0.3724094 -0.5966813 0.8015152 -0.0393046 -0.1529631 -0.1616800 -0.9749163 0.0500000 0.0500000 0.1389837 0.2667472 0.1506718 0.6166794 -0.2500000 0.0000000
-0.2111337 0.1203518 0.3022077 0.2619206 0.9649934 0.0136129 -0.2978161 0.0942348 -0.9499607 0.0500000 0.0500000 0.1977513 0.3332877 0.0000000 0.8558456 -0.2500000 0.0000000
-0.0172424 -0.2807747 0.4920718 0.9995203 -0.0276785 0.0138967 0.0309440 0.8736275 -0.4856103 0.0500000 0.0500000 0.0596611 0.1473475 0.0000000 1.0000000 -0.2500000 0.0000000
-0.4135415 0.0196050 0.3696968 0.0497980 0.9977325 -0.0452778 0.3726836 -0.0606225 -0.9259761 0.0500000 0.0500000 0.1253665 0.0000000 0.0000000 0.8921593 -0.2500000 0.0000000
0.0993833 -0.2212378 0.3269391 -0.6825189 -0.7308678 -0.0004769 0.3026430 -0.2820283 -0.9104215 0.0500000 0.0500000 0.2020371 0.4477928 0.0000000 0.9802125 -0.2500000 0.0000000
0.1779156 0.2978610 0.3887797 0.6797931 -0.7325139 -0.0361210 0.2503145 0.2780290 -0.9273848 0.0500000 0.0500000 0.0000000 0.2558576 0.0003571 1.0000000 -0.2500000 0.0000000
0.0771632 0.2898892 0.3394104 0.9667548 -0.2544116 0.0256907 0.1061437 0.3078657 -0.9454905 0.0500000 0.0500000 0.2895024 0.5025550 0.0395829 0.8406375 -0.2500000 0.0000000
-0.3299022 0.0748462 0.3880522 0.2889778 0.9573342 -0.0017536 -0.2443412 0.0719847 -0.9670137 0.0500000 0.0500000 0.3178304 0.2389084 0.1784577 1.0000000 -0.2500000 0.0000000
-0.4081977 -0.0474908 0.5259196 -0.6663157 -0.7456645 0.0028076 0.3350690 -0.3027726 -0.8922205 0.0500000 0.0500000 0.0000000 0.0000000 0.0000000 1.0000000 -0.2500000 0.0000000
0.2826413 0.0104508 0.5096409 0.9987351 -0.0481118 -0.0146132 0.0402455 0.9390999 -0.3412795 0.0500000 0.0500000 0.0475752 0.2281605 0.4119258 0.8655771 -0.2500000 0.0000000
-0.2666700 0.1409554 0.3402462 0.4802643 0.8768571 0.0216301 -0.1832358 0.1244153 -0.9751643 0.0500000 0.0500000 0.0000000 0.3421958 0.2523549 0.9170587 -0.2500000 0.0000000
0.1170814 -0.1769821 0.1445299 -0.8858896 -0.4638886 -0.0026382 -0.4632999 0.8850251 -0.0456472 0.0500000 0.0500000 0.0000000 0.0000000 0.0385325 1.0000000 -0.2500000 0.0000000
-0.3073484 -0.1307140 0.1787264 -0.4632754 0.8861125 -0.0134350 0.3918794 0.1912371 -0.8999216 0.0500000 0.0500000 0.0000000 0.4901633 0.0000000 0.9288621 -0.2500000 0.0000000
0.4391740 -0.0373641 0.2783876 -0.1044384 -0.9933773 -0.0478985 -0.5138715 0.0951351 -0.8525757 0.0500000 0.0500000 0.0000000 0.5196588 0.0000000 1.0000000 -0.2500000 0.0000000
-0.1982166 0.1684927 0.1244953 0.4724302 0.8810085 0.0251732 0.6709427 -0.3409705 -0.6584641 0.0500000 0.0500000 0.1095894 0.0000000 0.0291034 0.8879481 -0.2500000 0.0000000
-0.2033006 0.1484327 0.4485220 0.7778623 0.6280120 -0.0230450 -0.2797546 0.3132045 -0.9075463 0.0500000 0.0500000 0.0000000 0.0000000 0.0000000 0.6320658 -0.2500000 0.0000000
-0.1612508 0.3023450 0.2899293 0.8981498 0.4394757 -0.0137120 -0.1013657 0.1766124 -0.9790470 0.0500000 0.0500000 0.0000000 0.0000000 0.0000000 0.8587546 -0.2500000 0.0000000
0.0964264 -0.0097133 0.1664514 0.9999958 -0.0021447 -0.0019351 -0.0020807 -0.9994702 0.0324804 0.0500000 0.0500000 0.0000000 0.0000000 0.0226159 0.5930466 -0.2500000 0.0000000
0.3245559 -0.1142523 0.2074701 -0.5288916 -0.8485083 0.0175316 -0.2185267 0.1161931 -0.9688887 0.0500000 0.0500000 0.0000000 0.0000000 0.7290251 1.0000000 -0.2500000 0.0000000
-0.0117621 0.0430511 0.6361049 0.1205169 0.9924625 -0.0222251 -0.9001321 0.0998094 -0.4240287 0.0500000 0.0500000 0.1853098 0.0986903 0.2396483 0.5568116 -0.2500000 0.0000000
-0.2529661 -0.0273333 0.3781227 -0.4039623 0.9147692 0.0034266 -0.2845969 -0.1221164 -0.9508376 0.0500000 0.0500000 0.0000000 0.0000000 0.2543437 0.8421622 -0.2500000 0.0000000
-0.2457075 -0.0129393 0.2797100 -0.9974875 -0.0673777 0.0218835 0.0004973 -0.3155562 -0.9489068 0.0500000 0.0500000 0.0000000 0.0746472 0.1056131 0.9520433 -0.2500000 0.0000000
0.1352953 -0.0039378 0.5102894 0.3036723 -0.9523976 0.0268697 0.9376081 0.2937067 -0.1860845 0.0500000 0.0500000 0.0000000 0.0000000 0.1950852 0.9545952 -0.2500000 0.0000000
0.0619984 0.2628242 0.4428464 0.9647102 -0.2631698 0.0087122 0.1262238 0.4331586 -0.8924356 0.0500000 0.0500000 0.0000000 0.0000000 0.0000000 0.8998338 -0.2500000 0.0000000
0.2464876 -0.1908187 0.1806661 -0.7119757 -0.7020402 0.0151720 -0.3892080 0.3765482 -0.8406715 0.0500000 0.0500000 0.0000000 0.0000000 0.0000000 1.0000000 -0.2500000 0.0000000
0.0258788 0.2199776 0.5372943 0.9966640 -0.0736185 0.0352299 0.0722262 0.5946119 -0.8007622 0.0500000 0.0500000 0.1061600 0.3327620 0.0000000 1.0000000 -0.2500000 0.0000000
-0.1557288 -0.1757321 0.5565052 -0.8448392 0.5342363 0.0289524 -0.2284342 -0.3112529 -0.9224638 0.0500000 0.0500000 0.0000000 0.0782034 0.8522830 0.8549062 -0.2500000 0.0000000
-0.2903829 0.0242629 0.3736669 0.2946405 -0.9555986 -0.0042790 0.8810492 0.2733832 -0.3860232 0.0500000 0.0500000 0.0000000 0.1268550 0.5413475 0.9004532 -0.2500000 0.0000000
0.1729299 0.0360265 0.4885882 0.4910449 -0.8704938 -0.0333974 0.8557146 0.4891798 -0.1686880 0.0500000 0.0500000 0.0000000 0.0000000 0.3041830 0.8329260 -0.2500000 0.0000000
-0.3693238 -0.0419949 0.4147032 0.3012955 -0.9534193 -0.0145835 0.4631473 0.1596965 -0.8717750 0.0500000 0.0500000 0.2529840 0.0000000 0.0000000 0.5644312 -0.2500000 0.0000000
0.1012803 0.1422356 0.1498907 0.8570553 -0.5150872 0.0118943 -0.4830904 -0.8114127 -0.3289880 0.0500000 0.0500000 0.0310110 0.0000000 0.0078375 0.7228050 -0.2500000 0.0000000
0.1817939 0.1451191 0.1202343 0.8246721 -0.5655957 -0.0041815 -0.4090015 -0.5912094 -0.6951181 0.0500000 0.0500000 0.2343160 0.0000000 0.0000000 1.0000000 -0.2500000 0.0000000
-0.2642417 0.1926132 0.3408181 0.3512556 0.9360544 -0.0205329 -0.3203518 0.0995479 -0.9420536 0.0500000 0.0500000 0.1394713 0.0000000 0.0000000 0.8584152 -0.2500000 0.0000000
0.0976373 0.2140254 0.4599471 0.8085204 -0.5883653 -0.0110019 0.2149203 0.3126405 -0.9252379 0.0500000 0.0500000 0.2475344 0.6956272 0.0926727 0.9117814 -0.2500000 0.0000000
0.0714075 0.0657757 0.0564944 0.9999183 -0.0079919 0.0099730 -0.0079587 -0.9999627 -0.0033698 0.0500000 0.0500000 0.0943648 0.0322413 0.0414713 0.6330475 -0.2500000 0.0000000
0.2570166 0.0172444 0.4780475 0.9989308 -0.0179520 0.0426026 0.0453978 0.5550278 -0.8305921 0.0500000 0.0500000 0.6455050 0.0770654 0.0998934 1.0000000 -0.2500000 0.0000000
0.0889169 0.1109024 0.1232764 0.8318449 -0.5546599 0.0196578 -0.5489060 -0.8274206 -0.1186482 0.0500000 0.0500000 0.0000000 0.0000000 0.1008861 0.7699649 -0.2500000 0.0000000
0.0330014 0.3161789 0.2809589 0.9368736 -0.3489670 -0.0221337 0.1083131 0.3498095 -0.9305383 0.0500000 0.0500000 0.0000000 0.0000000 0.0000000 0.7479732 -0.2500000 0.0000000
-0.0538510 -0.2946641 0.2443128 -0.9950252 0.0986275 -0.0140503 -0.0016942 -0.1577661 -0.9874750 0.0500000 0.0500000 0.0000000 0.0000000 0.0000000 1.0000000 -0.2500000 0.0000000
-0.1168918 0.1701431 0.2810149 0.8145498 0.5765386 0.0641243 0.4014267 -0.4804175 -0.7797792 0.0500000 0.0500000 0.5168132 0.8246012 0.1077660 0.7821943 -0.2500000 0.0000000
0.0149627 -0.2513983 0.2956205 -0.9756191 -0.2158695 -0.0395943 0.1019324 -0.2859189 -0.9528170 0.0500000 0.0500000 0.1048417 0.0000000 0.0000000 0.9666927 -0.2500000 0.0000000
-0.1442015 0.0849874 0.0944368 0.5177283 0.8554599 0.0120754 0.8543366 -0.5161956 -0.0604233 0.0500000 0.0500000 0.0000000 0.5739332 0.0000000 1.0000000 -0.2500000 0.0000000
-0.0062937 0.2732719 0.2024224 0.9948549 -0.1012229 -0.0041992 -0.0786752 -0.7458062 -0.6615008 0.0500000 0.0500000 0.0000000 0.3625754 0.0611274 0.7834285 -0.2500000 0.0000000
0.2342209 0.2218365 0.3022513 0.5122985 -0.8587595 -0.0090767 0.1573115 0.1042249 -0.9820337 0.0500000 0.0500000 0.1387598 0.1261366 0.0000000 0.8826540 -0.2500000 0.0000000
0.3420048 -0.0334456 0.2519548 0.5809339 0.8138790 -0.0108051 -0.8030263 0.5709188 -0.1708814 0.0500000 0.0500000 0.0000000 0.0000000 0.0000000 0.7977588 -0.2500000 0.0000000
-0.0087651 0.1668642 0.5778076 0.9823225 0.1866917 0.0137348 -0.0726285 0.4477184 -0.8912201 0.0500000 0.0500000 0.0000000 0.0854493 0.0692356 0.8292102 -0.2500000 0.0000000
0.2582278 0.1963632 0.3990970 0.5484474 -0.8359467 0.0199626 0.2916385 0.1688546 -0.9415068 0.0500000 0.0500000 0.1520277 0.0000000 0.4309770 0.7584682 -0.2500000 0.0000000
-0.2761196 -0.2360336 0.2770065 -0.7328466 0.6802522 0.0138853 0.3295185 0.3727025 -0.8674736 0.0500000 0.0500000 0.0500674 0.0000000 0.0000000 1.0000000 -0.2500000 0.0000000
-0.0095906 -0.0996163 0.1411499 0.9989459 -0.0413447 0.0199412 -0.0413695 -0.9991436 0.0008313 0.0500000 0.0500000 0.0000000 0.0332561 0.0000000 0.7714682 -0.2500000 0.0000000
-0.0619461 -0.0475121 0.4845897 -0.5899638 0.8068114 -0.0315940 -0.7538458 -0.5644068 -0.3363948 0.0500000 0.0500000 0.0000000 0.0000000 0.0000000 0.8301713 -0.2500000 0.0000000
0.1152677 -0.1524006 0.1435850 -0.8523904 -0.5225463 -0.0193905 -0.3836224 0.6501127 -0.6558867 0.0500000 0.0500000 0.0000000 0.0000000 0.3576160 0.7499399 -0.2500000 0.0000000
-0.1760548 0.1176982 0.1670916 0.8146052 0.5800045 0.0036277 0.0840134 -0.1118021 -0.9901727 0.0500000 0.0500000 0.1021516 0.0000000 0.0000000 0.6254214 -0.2500000 0.0000000
0.1193861 -0.0388007 0.4744855 0.0126144 -0.9983105 -0.0567186 0.9849084 0.0221971 -0.1716469 0.0500000 0.0500000 0.0000000 0.0000000 0.0000000 0.8686100 -0.2500000 0.0000000
-0.3254670 0.0293072 0.4442730 0.0720618 0.9969756 0.0290993 -0.4135474 0.0564151 -0.9087331 0.0500000 0.0500000 0.0000000 0.1192165 0.0955442 1.0000000 -0.2500000 0.0000000
-0.0959967 0.0217482 0.5407599 -0.0836545 0.9961931 0.0245201 0.3793743 0.0545917 -0.9236314 0.0500000 0.0500000 0.0000000 0.0000000 0.3577249 1.0000000 -0.2500000 0.0000000
0.2396411 -0.0047802 0.3607559 -0.9985946 0.0194451 -0.0493020 0.0525697 0.4814585 -0.8748909 0.0500000 0.0500000 0.0000000 0.5611267 0.1563688 0.9575153 -0.2500000 0.0000000
0.4591683 0.0031687 0.3626442 -0.7405220 0.6712845 -0.0316907 -0.0640260 -0.1174147 -0.9910169 0.0500000 0.0500000 0.0000000 0.0762859 0.5087491 0.9486547 -0.2500000 0.0000000
0.1314574 -0.1107410 0.1100905 -0.6278640 -0.7782585 -0.0100250 -0.7689235 0.6222258 -0.1469412 0.0500000 0.0500000 0.0000000 0.1007883 0.0000000 0.8297406 -0.2500000 0.0000000
-0.2313981 -0.0556878 0.2856597 -0.1276025 0.9918252 -0.0006552 0.1474277 0.0183140 -0.9889033 0.0500000 0.0500000 0.2166456 0.0000000 0.0000000 0.5377944 -0.2500000 0.0000000
0.2517372 0.0595617 0.4610383 0.5013398 -0.8651312 -0.0143684 0.3450255 0.2151144 -0.9136100 0.0500000 0.0500000 0.0000000 0.2521741 0.0000000 0.8721716 -0.2500000 0.0000000
-0.3345681 0.0527270 0.2973784 0.7574447 0.6528044 0.0111322 0.1912256 -0.2055107 -0.9597907 0.0500000 0.0500000 0.3145403 0.1337574 0.0000000 1.0000000 -0.2500000 0.0000000
0.0157387 -0.0748126 0.5422622 -0.7834121 -0.6208592 0.0282739 0.5107387 -0.6690481 -0.5399266 0.0500000 0.0500000 0.2707515 0.0000000 0.3636913 1.0000000 -0.2500000 0.0000000
0.2725173 0.1011785 0.5018028 -0.0632725 0.9968497 0.0478246 -0.2192487 0.0328656 -0.9751153 0.0500000 0.0500000 0.0000000 0.0000000 0.1451277 0.9064288 -0.2500000 0.0000000
-0.1661151 -0.1200014 0.1488935 -0.5927021 0.8053916 -0.0069642 0.5575971 0.4040756 -0.7251265 0.0500000 0.0500000 0.1256118 0.2442635 0.0000000 0.6886926 -0.2500000 0.0000000
0.1616820 -0.1407400 0.4890728 -0.4512009 -0.8924210 -0.0015649 0.8403800 -0.4242980 -0.3372428 0.0500000 0.0500000 0.6334205 0.2766835 0.3529510 0.8180943 -0.2500000 0.0000000
0.1995031 0.0651515 0.1198027 0.0209189 -0.9996205 0.0179261 -0.9967482 -0.0222477 -0.0774473 0.0500000 0.0500000 0.3339229 0.0000000 0.5164298 0.5187903 -0.2500000 0.0000000
-0.4692721 -0.0332492 0.5182709 -0.9644191 -0.2642767 0.0073213 0.1974182 -0.7383006 -0.6449327 0.0500000 0.0500000 0.0000000 0.1258872 0.0000000 0.8570017 -0.2500000 0.0000000
-0.2730469 0.0764077 0.4145691 -0.0054944 0.9999418 0.0092826 -0.4152308 0.0061633 -0.9096952 0.0500000 0.0500000 0.0000000 0.4137621 0.0073563 0.9670192 -0.2500000 0.0000000
-0.1520126 -0.1994822 0.3384867 -0.8068078 0.5907347 0.0096844 -0.2354903 -0.3065060 -0.9222789 0.0500000 0.0500000 0.0000000 0.0000000 0.5408439 1.0000000 -0.2500000 0.0000000
-0.3464266 0.0092754 0.3591171 -0.7082179 0.7055785 -0.0242149 0.1812055 0.1485194 -0.9721659 0.0500000 0.0500000 0.0000000 0.0000000 0.0000000 0.8855771 -0.2500000 0.0000000
0.3623001 0.0032673 0.3807093 0.2080864 0.9766685 -0.0530907 -0.3053530 0.0133000 -0.9521463 0.0500000 0.0500000 0.1604821 0.0719026 0.0000000 0.6261114 -0.2500000 0.0000000
-0.1808855 0.1619658 0.3252948 0.4203922 0.9073270 0.0053069 -0.2148700 0.1052349 -0.9709565 0.0500000 0.0500000 0.0898533 0.0000000 0.0000000 1.0000000 -0.2500000 0.0000000
0.1067064 0.2860929 0.4186338 0.9964290 -0.0835907 -0.0119060 0.0231319 0.4058711 -0.9136376 0.0500000 0.0500000 0.0000000 0.0000000 0.1145412 1.0000000 -0.2500000 0.0000000
0.2928453 0.0668633 0.1913590 0.2503114 -0.9681561 0.0042351 -0.5461303 -0.1448083 -0.8250892 0.0500000 0.0500000 0.0000000 0.0000000 0.0000000 0.9893616 -0.2500000 0.0000000
0.1952171 -0.2132513 0.2008925 -0.7334224 -0.6785383 0.0409557 -0.5437943 0.5494936 -0.6343064 0.0500000 0.0500000 0.3770742 0.1109925 0.0000000 0.9611063 -0.2500000 0.0000000
0.0793223 0.0138710 0.0155065 0.9986574 0.0292301 0.0427677 0.0313733 -0.9982398 -0.0503290 0.0500000 0.0500000 0.0000000 0.0000000 0.3408617 0.5047829 -0.2500000 0.0000000
-0.2086678 0.2267702 0.2876955 0.6464633 0.7629396 -0.0028895 0.1329561 -0.1163857 -0.9842647 0.0500000 0.0500000 0.1104666 0.4159634 0.3686769 0.8377094 -0.2500000 0.0000000
0.0983647 0.2624370 0.2914356 0.9130772 -0.4051063 -0.0466787 0.0665406 0.2609463 -0.9630573 0.0500000 0.0500000 0.0625842 0.0000000 0.0000000 1.0000000 -0.2500000 0.0000000
0.0519637 0.1471045 0.5575314 0.8661596 -0.4996809 -0.0093082 0.4921719 0.8560822 -0.1577662 0.0500000 0.0500000 0.0673569 0.1880950 0.0761650 0.7597866 -0.2500000 0.0000000
0.2608511 0.1401607 0.2645729 0.4111882 -0.9113932 0.0169296 -0.0463582 -0.0394562 -0.9981453 0.0500000 0.0500000 0.0000000 0.0000000 0.0241668 0.7662711 -0.2500000 0.0000000
0.1114129 0.1513575 0.3805905 0.8228942 -0.5681745 0.0047886 0.1963810 0.2764925 -0.9407372 0.0500000 0.0500000 0.4695229 0.0000000 0.0000000 0.9576091 -0.2500000 0.0000000
0.0004311 -0.2157407 0.1539377 -0.8880290 0.4597873 -0.0003334 0.3294648 0.6358191 -0.6979878 0.0500000 0.0500000 0.0000000 0.0000000 0.1122341 0.7583431 -0.2500000 0.0000000
-0.0450155 0.0177334 0.1757548 0.9980636 0.0168773 0.0598676 0.0186136 -0.9994187 -0.0285635 0.0500000 0.0500000 0.0000000 0.0000000 0.0000000 1.0000000 -0.2500000 0.0000000
0.2160170 0.1639753 0.1609148 0.6916995 -0.7221677 0.0050606 -0.3883423 -0.3778480 -0.8404886 0.0500000 0.0500000 0.4571673 0.0000000 0.1777272 0.9568303 -0.2500000 0.0000000
0.3101993 0.1570936 0.3459447 0.5301250 -0.8471529 -0.0360475 0.2399446 0.1906546 -0.9518810 0.0500000 0.0500000 0.0000000 0.0000000 0.1103284 0.8679680 -0.2500000 0.0000000
0.0954618 0.1965916 0.4957593 0.9176965 -0.3959958 0.0319441 0.2089803 0.4127851 -0.8865301 0.0500000 0.0500000 0.0628255 0.2780911 0.0000000 0.9120359 -0.2500000 0.0000000
0.2943678 -0.0884283 0.2194210 -0.5125788 -0.8574276 -0.0456172 -0.1938801 0.1673315 -0.9666492 0.0500000 0.0500000 0.3001291 0.4842812 0.0000000 0.5433828 -0.2500000 0.0000000
-0.2109354 -0.0424793 0.1443897 -0.3210870 0.9468742 -0.0182300 0.6784481 0.2165474 -0.7020081 0.0500000 0.0500000 0.4665194 0.0000000 0.0000000 0.7856222 -0.2500000 0.0000000
-0.1334351 -0.0962648 0.1654957 -0.6979272 0.7152445 0.0363721 0.4389407 0.4673382 -0.7674152 0.0500000 0.0500000 0.0000000 0.4139840 0.0781047 0.9098272 -0.2500000 0.0000000
0.0686224 0.1489425 0.1010518 0.9753276 -0.2179201 -0.0353120 -0.1858122 -0.7239763 -0.6643284 0.0500000 0.0500000 0.3214805 0.0789116 0.0000000 0.3590280 -0.2500000 0.0000000
0.1816605 -0.1872426 0.3840106 -0.7914932 -0.6088010 0.0538508 0.1685999 -0.3021835 -0.9382213 0.0500000 0.0500000 0.8144620 0.4253825 0.1945893 0.9046650 -0.2500000 0.0000000
-0.2081415 -0.2148499 0.2119133 -0.8074923 0.5898243 -0.0079669 0.4653360 0.6286465 -0.6231099 0.0500000 0.0500000 0.2660164 0.1664277 0.0552673 0.9310709 -0.2500000 0.0000000
0.0775478 0.0975419 0.5924961 0.4791406 -0.8764466 0.0475981 -0.3971045 -0.2648139 -0.8787386 0.0500000 0.0500000 0.0000000 0.1780251 0.2060915 0.8250809 -0.2500000 0.0000000
0.0537368 0.0146604 0.5613546 0.8374738 -0.5464046 -0.0089264 -0.3472742 -0.5195126 -0.7807095 0.0500000 0.0500000 0.0592547 0.0000000 0.3865054 0.8593656 -0.2500000 0.0000000
-0.1842552 -0.0046575 0.4700417 -0.0023005 0.9999502 0.0097158 -0.4488157 0.0076498 -0.8935916 0.0500000 0.0500000 0.3492868 0.0000000 0.1240427 0.8204767 -0.2500000 0.0000000
0.0897259 -0.1084734 0.4742834 -0.8200163 -0.5722713 0.0088751 0.2554078 -0.3797668 -0.8891254 0.0500000 0.0500000 0.0000000 0.0000000 0.0318232 1.0000000 -0.2500000 0.0000000
-0.0043049 0.1182557 0.5039335 0.9972727 0.0735256 0.0064077 -0.0274676 0.4503353 -0.8924369 0.0500000 0.0500000 0.1288832 0.1020384 0.0000000 0.9638233 -0.2500000 0.0000000
-0.2418606 -0.0893675 0.1868420 -0.5092315 0.8601960 0.0273170 0.2064836 0.1529277 -0.9664252 0.0500000 0.0500000 0.0000000 0.0099720 0.0000000 1.0000000 -0.2500000 0.0000000
-0.1469072 0.0786275 0.1046401 0.3041700 0.9524262 -0.0191052 0.9455236 -0.3042871 -0.1157347 0.0500000 0.0500000 0.0000000 0.3720262 0.0000000 0.8244314 -0.2500000 0.0000000
-0.1126164 0.1701313 0.2113460 0.9446540 0.3265833 0.0311805 0.2207101 -0.5623264 -0.7969166 0.0500000 0.0500000 0.5146058 0.1527648 0.0000000 0.8162912 -0.2500000 0.0000000
-0.1330835 -0.1878059 0.5079730 -0.6679722 0.7437888 0.0243172 -0.5708014 -0.4911046 -0.6580289 0.0500000 0.0500000 0.5415341 0.0000000 0.1884079 0.7403738 -0.2500000 0.0000000
0.0554458 0.2323292 0.2594047 0.9787525 -0.2044149 -0.0160635 0.0317741 0.2285979 -0.9730023 0.0500000 0.0500000 0.3208905 0.3275769 0.1359840 0.7054843 -0.2500000 0.0000000
-0.3862226 -0.0799785 0.3735233 -0.9988223 -0.0305969 -0.0376548 0.0447574 -0.2814432 -0.9585335 0.0500000 0.0500000 0.0000000 0.0000000 0.0000000 0.9889753 -0.2500000 0.0000000
-0.2165769 0.1523595 0.1354627 0.6819193 0.7292262 0.0567027 0.5251033 -0.4341210 -0.7319873 0.0500000 0.0500000 0.0000000 0.0000000 0.0000000 0.9407489 -0.2500000 0.0000000
-0.1387093 0.0927628 0.0846028 0.5136042 0.8580157 -0.0044562 0.8510670 -0.5100912 -0.1244666 0.0500000 0.0500000 0.0936434 0.0000000 0.1070951 1.0000000 -0.2500000 0.0000000
-0.0438090 0.0085812 0.5422525 0.2968558 0.9538773 -0.0446634 -0.9371326 0.2820206 -0.2055404 0.0500000 0.0500000 0.0000000 0.2733949 0.0000000 0.8084128 -0.2500000 0.0000000
0.0375937 -0.3091677 0.2439623 -0.9825388 -0.1857269 -0.0110904 0.0309736 -0.1044999 -0.9940425 0.0500000 0.0500000 0.0000000 0.0000000 0.0000000 1.0000000 -0.2500000 0.0000000
-0.0493346 0.0820306 0.1177160 0.9983221 0.0445301 0.0370142 0.0448317 -0.9989674 -0.0073596 0.0500000 0.0500000 0.0000000 0.7308614 0.0249382 0.7401253 -0.2500000 0.0000000
-0.2822324 0.0432407 0.2328922 0.8084558 0.5882906 -0.0177026 0.3747907 -0.5377796 -0.7551986 0.0500000 0.0500000 0.0000000 0.0000000 0.0000000 0.9323516 -0.2500000 0.0000000
-0.3684667 0.0489951 0.4243693 0.3499537 -0.9365273 0.0211880 0.6735486 0.2358377 -0.7005090 0.0500000 0.0500000 0.1936412 0.0000000 0.4358469 0.6283457 -0.2500000 0.0000000
0.0578123 0.2877005 0.3784347 0.9693012 -0.2453927 -0.0154135 0.0559902 0.2813333 -0.9579753 0.0500000 0.0500000 0.0000000 0.0000000 0.0000000 0.8700782 -0.2500000 0.0000000
-0.1014276 0.0289842 0.5187047 0.4918364 0.8688668 -0.0562803 -0.8690409 0.4859059 -0.0930768 0.0500000 0.0500000 0.1787095 0.0415499 0.1388502 0.9980889 -0.2500000 0.0000000
-0.0158782 0.3063622 0.1869167 0.9921478 0.1233752 -0.0205268 0.0021691 -0.1810696 -0.9834679 0.0500000 0.0500000 0.1262477 0.0000000 0.8915169 0.7372731 -0.2500000 0.0000000
-0.1099815 0.0818937 0.0912078 0.2892185 0.9558083 0.0527550 0.9571129 -0.2877575 -0.0336218 0.0500000 0.0500000 0.0000000 0.0000000 0.0000000 0.8047884 -0.2500000 0.0000000
0.3023532 0.0211008 0.3565692 -0.0176835 -0.9995358 0.0248085 0.1812704 -0.0276062 -0.9830457 0.0500000 0.0500000 0.1153048 0.0000000 0.0000000 1.0000000 -0.2500000 0.0000000
0.2801769 -0.0568491 0.3205924 -0.4495819 -0.8929779 0.0216008 0.1673198 -0.1079447 -0.9799755 0.0500000 0.0500000 0.0000000 0.1798549 0.1192829 0.9942177 -0.2500000 0.0000000
0.0403575 -0.2614791 0.2906541 -0.9895733 -0.1424158 0.0215017 0.0006733 -0.1538589 -0.9880926 0.0500000 0.0500000 0.2153038 0.0000000 0.1502363 0.8270879 -0.2500000 0.0000000
-0.2371909 -0.0599225 0.3788660 -0.2337417 0.9721066 0.0193256 -0.4372906 -0.0873519 -0.8950679 0.0500000 0.0500000 0.3141663 0.4588392 0.3183730 0.9763806 -0.2500000 0.0000000
-0.2612992 0.0453555 0.1175234 0.0496183 0.9980232 0.0385697 0.9768420 -0.0404456 -0.2101043 0.0500000 0.0500000 0.0000000 0.0000000 0.0000000 1.0000000 -0.2500000 0.0000000
-0.4166036 0.0616128 0.4254786 0.5749959 0.8179069 -0.0201999 0.1147975 -0.1050998 -0.9878135 0.0500000 0.0500000 0.0000000 0.0000000 0.0000000 0.7536778 -0.2500000 0.0000000
-0.1154121 0.2091619 0.2333020 0.8995463 0.4365915 -0.0142915 0.1394039 -0.3179242 -0.9378117 0.0500000 0.0500000 0.1915639 0.0000000 0.0000000 0.7234852 -0.2500000 0.0000000
-0.0079183 0.0756703 0.4546180 0.9316546 0.3630805 0.0138672 -0.3556990 0.9191727 -0.1691147 0.0500000 0.0500000 0.6221839 0.0000000 0.0000000 1.0000000 -0.2500000 0.0000000
0.1379238 -0.3538308 0.2962019 -0.8754922 -0.4807262 -0.0491512 0.0628252 -0.0123827 -0.9979477 0.0500000 0.0500000 0.1502837 0.0693628 0.2341807 1.0000000 -0.2500000 0.0000000
0.1182851 -0.1172212 0.1407183 -0.4732359 -0.8809313 -0.0028152 -0.8645420 0.4650405 -0.1905374 0.0500000 0.0500000 0.3519398 0.0000000 0.0000000 0.8969729 -0.2500000 0.0000000
-0.0383915 0.0610627 0.5040404 0.3041379 0.9523891 0.0213316 -0.9319351 0.3020988 -0.2005823 0.0500000 0.0500000 0.2098781 0.0000000 0.0886522 0.8649715 -0.2500000 0.0000000
0.0674518 -0.2413499 0.1357465 -0.9252469 -0.3778359 -0.0340327 -0.3309237 0.8477104 -0.4145801 0.0500000 0.0500000 0.1769049 0.1116939 0.6883100 0.7838099 -0.2500000 0.0000000
0.1142812 0.0191656 0.5053699 0.4982674 -0.8670195 0.0026038 0.8603789 0.4940755 -0.1250499 0.0500000 0.0500000 0.0000000 0.0000000 0.0000000 0.8793814 -0.2500000 0.0000000
0.0055892 -0.0189005 0.1086501 0.9997788 0.0161326 -0.0134926 0.0163819 -0.9996933 0.0185749 0.0500000 0.0500000 0.2100638 0.0000000 0.1690608 0.6690923 -0.2500000 0.0000000
0.0468324 0.0883946 0.5098787 0.9826498 -0.1834022 -0.0276221 0.1616483 0.9199038 -0.3572769 0.0500000 0.0500000 0.0000000 0.3079152 0.0000000 1.0000000 -0.2500000 0.0000000
-0.2053222 -0.1939190 0.3327507 -0.7418104 0.6704742 0.0134794 -0.1995852 -0.2015418 -0.9589299 0.0500000 0.0500000 0.0000000 0.2417636 0.4016469 0.9161582 -0.2500000 0.0000000
0.0822559 0.2728509 0.2525257 0.8213090 -0.5703804 -0.0108458 0.1202265 0.1916401 -0.9740737 0.0500000 0.0500000 0.0000000 0.0000000 0.0000000 0.6950374 -0.2500000 0.0000000
0.3605804 0.0572922 0.1971178 0.0571654 -0.9979689 -0.0281096 -0.4796652 -0.0027612 -0.8774472 0.0500000 0.0500000 0.0000000 0.0214849 0.0000000 0.9648779 -0.2500000 0.0000000
0.0334548 0.1507629 0.1237143 0.9486380 -0.3151425 -0.0277716 -0.3048136 -0.8869721 -0.3469426 0.0500000 0.0500000 0.0599017 0.2263213 0.0373238 0.9344372 -0.2500000 0.0000000
0.2303601 0.1460502 0.2742333 0.5899656 -0.8068137 -0.0315005 -0.0260548 0.0199700 -0.9994610 0.0500000 0.0500000 0.7150136 0.0000000 0.2463529 0.7052940 -0.2500000 0.0000000
-0.0034967 0.1679986 0.4815068 0.9574971 0.2884372 0.0017931 -0.2842079 0.9444824 -0.1648603 0.0500000 0.0500000 0.2301708 0.1283540 0.6953496 0.8732879 -0.2500000 0.0000000
0.1768339 0.2194456 0.5489571 0.5386609 -0.8422524 0.0213367 0.3674928 0.2120898 -0.9055203 0.0500000 0.0500000 0.0000000 0.0000000 0.0000000 0.7957492 -0.2500000 0.0000000
0.4076166 -0.0079641 0.3823933 0.3097090 -0.9508301 0.0015414 -0.0631849 -0.0221983 -0.9977549 0.0500000 0.0500000 0.3157276 0.2958566 0.2334259 0.5166088 -0.2500000 0.0000000
-0.0304873 -0.0832447 0.4963424 -0.9560912 0.2928403 0.0115835 -0.2882882 -0.9326483 -0.2169265 0.0500000 0.0500000 0.1155829 0.2419111 0.2854228 0.7686683 -0.2500000 0.0000000
0.2268206 -0.1688815 0.1842053 -0.4128073 -0.9106919 0.0151792 -0.6060224 0.2621863 -0.7509961 0.0500000 0.0500000 0.0000000 0.2204149 0.0000000 0.7247607 -0.2500000 0.0000000
-0.1524280 0.0382269 0.1158101 0.4097394 0.9117040 0.0301573 0.9113208 -0.4076663 -0.0574682 0.0500000 0.0500000 0.0302500 0.1316454 0.0000000 0.8940133 -0.2500000 0.0000000
0.0598063 0.2478019 0.3406981 0.9090965 -0.4164178 0.0118220 0.1444317 0.2884420 -0.9465414 0.0500000 0.0500000 0.2709455 0.4162854 0.0000000 0.8108157 -0.2500000 0.0000000
-0.0727280 -0.2168392 0.1896791 -0.8255525 0.5641420 0.0143809 0.4247348 0.6379226 -0.6423824 0.0500000 0.0500000 0.1591474 0.0000000 0.0000000 1.0000000 -0.2500000 0.0000000
-0.2020029 0.1915296 0.1451948 0.4974212 0.8659768 0.0515404 0.6061996 -0.3044754 -0.7347222 0.0500000 0.0500000 0.0000000 0.0000000 0.0000000 1.0000000 -0.2500000 0.0000000
-0.0754586 -0.0415434 0.5497512 -0.2874381 0.9565081 -0.0497153 -0.9399719 -0.2916758 -0.1771384 0.0500000 0.0500000 0.4699403 0.0000000 0.0000000 1.0000000 -0.2500000 0.0000000
-0.1588234 0.0749483 0.1314496 0.3250995 0.9455923 0.0128650 0.9025695 -0.3061899 -0.3026815 0.0500000 0.0500000 0.0000000 0.0000000 0.0576643 1.0000000 -0.2500000 0.0000000
-0.2346460 -0.1867851 0.4880356 0.6872185 -0.7232444 0.0681784 0.3791911 0.2770780 -0.8828601 0.0500000 0.0500000 0.0000000 0.0000000 0.1748196 0.8669556 -0.2500000 0.0000000
0.0714166 -0.2536880 0.1089597 -0.9940536 -0.1071956 -0.0191429 -0.1028571 0.9820527 -0.1580916 0.0500000 0.0500000 0.0000000 0.1475231 0.0000000 0.7198528 -0.2500000 0.0000000
0.1118802 -0.2684221 0.3569575 -0.9504896 -0.3106189 0.0092379 0.0436638 -0.1629247 -0.9856719 0.0500000 0.0500000 0.0000000 0.3510309 0.0000000 1.0000000 -0.2500000 0.0000000
0.0497804 0.1224651 0.1725117 0.9871749 -0.1588536 0.0158486 -0.1575600 -0.9854680 -0.0634643 0.0500000 0.0500000 0.0000000 0.2780681 0.0000000 0.9260169 -0.2500000 0.0000000
-0.1116020 -0.2520745 0.4213686 -0.9216684 0.3879726 0.0021689 -0.1351511 -0.3158152 -0.9391458 0.0500000 0.0500000 0.0000000 0.0387750 0.4689389 0.9903777 -0.2500000 0.0000000
0.2342960 -0.1410790 0.2036956 -0.3859249 -0.9220962 0.0282956 -0.1717061 0.0416608 -0.9842669 0.0500000 0.0500000 0.0000000 0.5077746 0.0000000 0.8425660 -0.2500000 0.0000000
-0.2098813 -0.1727590 0.3037113 -0.7801830 0.6255410 0.0036094 -0.2113077 -0.2581063 -0.9427249 0.0500000 0.0500000 0.5093427 0.0000000 0.0000000 0.9515584 -0.2500000 0.0000000
-0.4750215 0.0240887 0.4434880 0.3702185 0.9283953 0.0319430 0.7211394 -0.2655546 -0.6398740 0.0500000 0.0500000 0.0000000 0.0000000 0.0000000 1.0000000 -0.2500000 0.0000000
-0.1505928 -0.2775882 0.2869751 -0.8651240 0.5015389 0.0043907 -0.0616958 -0.0977258 -0.9932992 0.0500000 0.0500000 0.0000000 0.1500451 0.0000000 1.0000000 -0.2500000 0.0000000
0.1250551 0.2250194 0.3909369 0.9143090 -0.4048218 -0.0125851 0.1275431 0.3172760 -0.9397174 0.0500000 0.0500000 0.7859456 0.0000000 0.0000000 0.7901334 -0.2500000 0.0000000
0.3049682 -0.1237404 0.2733684 -0.2115460 -0.9771498 0.0206517 0.2490453 -0.0743249 -0.9656357 0.0500000 0.0500000 0.1568954 0.0833645 0.0000000 1.0000000 -0.2500000 0.0000000
-0.1409541 -0.2876473 0.2006149 -0.7714879 0.6359020 -0.0208579 0.4772784 0.5567424 -0.6798847 0.0500000 0.0500000 0.0000000 0.5961393 0.1248222 1.0000000 -0.2500000 0.0000000
0.2515006 0.0901175 0.3564233 0.4282917 -0.9036305 0.0042616 0.3895411 0.1803705 -0.9031745 0.0500000 0.0500000 0.0358683 0.0000000 0.0000000 1.0000000 -0.2500000 0.0000000
-0.0286744 0.3159865 0.2944940 0.9639131 0.2657977 -0.0149338 -0.0777352 0.2273674 -0.9707014 0.0500000 0.0500000 0.3104345 0.4774149 0.0000000 1.0000000 -0.2500000 0.0000000
0.0461774 0.1547497 0.1387233 0.9952700 -0.0968397 0.0077271 -0.0935026 -0.9764763 -0.1942969 0.0500000 0.0500000 0.3728190 0.0000000 0.0830916 1.0000000 -0.2500000 0.0000000
-0.2214387 -0.1246238 0.2400488 -0.4709930 0.8815811 0.0313112 0.0232407 0.0478833 -0.9985825 0.0500000 0.0500000 0.0000000 0.4038354 0.0000000 0.7533536 -0.2500000 0.0000000
0.1722997 -0.0831296 0.1358610 -0.3001095 -0.9536496 -0.0220607 -0.4811501 0.1713041 -0.8597381 0.0500000 0.0500000 0.0000000 0.0000000 0.7329982 0.7393024 -0.2500000 0.0000000
0.0923832 0.0703170 0.1716177 0.9991660 -0.0357307 -0.0197641 -0.0355506 -0.9993238 0.0093886 0.0500000 0.0500000 0.0000000 0.0000000 0.2281662 0.7648839 -0.2500000 0.0000000
0.2674416 -0.0384888 0.4004210 -0.2824399 -0.9589515 0.0252941 0.2860311 -0.1093544 -0.9519600 0.0500000 0.0500000 0.2824617 0.2146444 0.5149362 0.7054164 -0.2500000 0.0000000
-0.3329927 -0.0110541 0.2522509 0.0078645 0.9998454 -0.0157237 -0.0512339 -0.0153006 -0.9985695 0.0500000 0.0500000 0.1027819 0.0000000 0.1397946 0.5930006 -0.2500000 0.0000000
0.4273383 0.0520618 0.2891847 0.9151824 -0.4004951 0.0452201 -0.0971719 -0.3281429 -0.9396169 0.0500000 0.0500000 0.1945636 0.3406684 0.0000000 0.8896142 -0.2500000 0.0000000
