ply
format ascii 1.0
comment 2D Gaussian splats: pk, tu, tv, scales, diffuse albedo, opacity
element vertex 271
property float x
property float y
property float z
property float tu_x
property float tu_y
property float tu_z
property float tv_x
property float tv_y
property float tv_z
property float su
property float sv
property float albedo_r
property float albedo_g
property float albedo_b
property float opacity
property float beta
property float shape
end_header
0.2923066 0.2302135 0.2404305 0.5869466 -0.8095311 0.0123703 -0.1068380 -0.0925897 -0.9899560 0.0500000 0.0500000 0.0000000 0.2941542 0.0182285 1.0000000 -0.5000000 0.0000000
-0.1860486 -0.0363305 0.0770251 -0.3770705 0.9261707 0.0050636 0.9222220 0.3759569 -0.0903498 0.0500000 0.0500000 0.0000000 0.1401373 0.1602993 0.6538549 -0.5000000 0.0000000
0.1460332 -0.2154703 0.1417278 -0.9353233 -0.3530700 -0.0226247 -0.2477908 0.6993866 -0.6704164 0.0500000 0.0500000 0.0000000 0.0000000 0.0000000 1.0000000 -0.5000000 0.0000000
0.0690327 0.1121622 0.5264075 0.6101630 -0.7921198 -0.0157285 -0.4916155 -0.3629698 -0.7915599 0.0500000 0.0500000 0.0000000 0.4658736 0.4700163 1.0000000 -0.5000000 0.0000000
-0.0495577 0.1397139 0.4991861 0.9880085 0.1543949 0.0011590 -0.1362314 0.8752597 -0.4640705 0.0500000 0.0500000 0.0000000 0.0000000 0.0000000 1.0000000 -0.5000000 0.0000000
0.1747496 -0.0856139 0.0993486 -0.6742598 -0.7384937 0.0008951 -0.4610230 0.4199759 -0.7817148 0.0500000 0.0500000 0.0000000 0.0883232 0.0000000 0.9177345 -0.5000000 0.0000000
0.2977686 -0.0404512 0.2278230 0.5251847 -0.8508612 -0.0147036 -0.7209980 -0.4357170 -0.5388066 0.0500000 0.0500000 0.0000000 0.0032017 0.0675036 0.9085111 -0.5000000 0.0000000
-0.2821910 0.1126425 0.1535451 0.3359041 0.9418791 0.0056713 0.1916083 -0.0624358 -0.9794836 0.0500000 0.0500000 0.0000000 0.0000000 0.2322923 0.9051418 -0.5000000 0.0000000
0.2611277 0.0656798 0.2877122 0.0742458 -0.9966597 -0.0340156 0.2304765 0.0503356 -0.9717751 0.0500000 0.0500000 0.1893585 0.0000000 0.0000000 0.7140077 -0.5000000 0.0000000
0.2115553 0.1563241 0.4301661 0.6450962 -0.7637751 -0.0223265 0.3158595 0.2931580 -0.9023808 0.0500000 0.0500000 0.0000000 0.0000000 0.0000000 0.9823599 -0.5000000 0.0000000
-0.3353812 0.0256684 0.3917787 -0.7562767 -0.6525057 0.0477690 0.2532659 -0.3592997 -0.8981983 0.0500000 0.0500000 0.2335524 0.3634756 0.2055949 1.0000000 -0.5000000 0.0000000
-0.1386927 0.1160650 0.5215627 0.8804740 0.4740472 -0.0066919 -0.4686024 0.8680454 -0.1640396 0.0500000 0.0500000 0.0000000 0.1873190 0.3674323 1.0000000 -0.5000000 0.0000000
-0.0609726 0.2979721 0.2777092 0.9858626 0.1665393 -0.0184303 0.0500864 -0.3978747 -0.9160715 0.0500000 0.0500000 0.1170447 0.1743617 0.0000000 1.0000000 -0.5000000 0.0000000
-0.0304772 -0.1150722 0.5403524 -0.8465897 0.5224871 -0.1014556 -0.5051512 -0.8488036 -0.1560597 0.0500000 0.0500000 0.0860925 0.0000000 0.0000000 0.8845459 -0.5000000 0.0000000
-0.1412998 -0.0548643 0.1059182 -0.2861281 0.9578261 -0.0264540 0.9506254 0.2802980 -0.1332082 0.0500000 0.0500000 0.0231673 0.2937632 0.0000000 1.0000000 -0.5000000 0.0000000
0.3280975 0.0010062 0.1431816 -0.1573088 -0.9875459 0.0026694 -0.8633863 0.1362179 -0.4858074 0.0500000 0.0500000 0.1354073 0.0000000 0.3008564 0.7104107 -0.5000000 0.0000000
-0.0028605 -0.0646135 0.5062247 -0.7194540 0.6932404 0.0424711 -0.5828591 -0.5693823 -0.5797232 0.0500000 0.0500000 0.2211222 0.3116050 0.3278204 1.0000000 -0.5000000 0.0000000
-0.3248434 -0.0456170 0.3763156 -0.2263155 -0.9733449 -0.0371617 0.3794991 -0.0529732 -0.9236743 0.0500000 0.0500000 0.0000000 0.2910424 0.0000000 0.8673050 -0.5000000 0.0000000
-0.0366891 0.0457525 0.4984167 0.9165544 0.3998735 -0.0053998 -0.3946896 0.9023327 -0.1732506 0.0500000 0.0500000 0.0336659 0.0000000 0.0000000 1.0000000 -0.5000000 0.0000000
0.3235432 0.1033168 0.2526900 0.1656878 -0.9861003 -0.0124011 0.0529188 0.0214470 -0.9983685 0.0500000 0.0500000 0.4469638 0.3478473 0.0939278 0.8166528 -0.5000000 0.0000000
-0.0317636 0.0089272 0.4673971 0.4991643 0.8664973 0.0041780 -0.8574587 0.4946410 -0.1417562 0.0500000 0.0500000 0.0000000 0.0077085 0.3570910 1.0000000 -0.5000000 0.0000000
0.2675319 0.0090748 0.4625102 -0.9997310 -0.0229130 -0.0035839 0.0229146 -0.9997373 -0.0004040 0.0500000 0.0500000 0.0654868 0.0000000 0.4067171 1.0000000 -0.5000000 0.0000000
-0.0261070 -0.2445490 0.5055578 0.9934061 -0.1144105 0.0073873 0.1136471 0.9741819 -0.1950742 0.0500000 0.0500000 0.4459496 0.0050533 0.0100728 1.0000000 -0.5000000 0.0000000
0.3426954 -0.0157369 0.4330495 -0.9358429 0.3520998 0.0149586 0.3281579 0.8861124 -0.3272877 0.0500000 0.0500000 0.3984886 0.4288716 0.0000000 0.6371670 -0.5000000 0.0000000
-0.2038635 -0.0584729 0.5271692 0.0676571 -0.9974455 0.0229113 0.2391564 -0.0060809 -0.9709620 0.0500000 0.0500000 0.0000000 0.4947859 0.0000000 0.8414114 -0.5000000 0.0000000
0.1831008 -0.0414411 0.1384514 -0.2341581 -0.9720062 -0.0193354 -0.6840982 0.1788667 -0.7071184 0.0500000 0.0500000 0.2820345 0.0000000 0.0591510 0.9412979 -0.5000000 0.0000000
-0.2686989 -0.1273461 0.3804455 -0.4249834 0.9049176 -0.0226530 -0.2794927 -0.1549807 -0.9475573 0.0500000 0.0500000 0.0000000 0.0000000 0.2205978 1.0000000 -0.5000000 0.0000000
-0.1295570 0.2578757 0.0894254 0.7506220 0.6598468 -0.0341875 0.3990545 -0.4939762 -0.7724915 0.0500000 0.0500000 0.0000000 0.0990085 0.0578229 1.0000000 -0.5000000 0.0000000
-0.0462038 -0.2920215 0.1822080 -0.9894885 0.1422368 -0.0260984 0.1185558 0.6945453 -0.7096135 0.0500000 0.0500000 0.0000000 0.4981153 0.0000000 1.0000000 -0.5000000 0.0000000
0.2724527 0.1344819 0.2182158 0.2797876 -0.9598384 -0.0207183 0.1410789 0.0624505 -0.9880267 0.0500000 0.0500000 0.3184805 0.0000000 0.0472916 0.7595390 -0.5000000 0.0000000
-0.1691487 -0.1047723 0.1519523 -0.3461621 0.9381618 0.0049262 0.6217460 0.2333371 -0.7476534 0.0500000 0.0500000 0.0000000 0.1306387 0.0000000 1.0000000 -0.5000000 0.0000000
-0.2229352 -0.0739048 0.3342538 -0.2083020 0.9778898 -0.0184860 -0.2725512 -0.0761878 -0.9591201 0.0500000 0.0500000 0.4520543 0.0255794 0.1416676 0.7959580 -0.5000000 0.0000000
0.0974412 -0.0787304 0.1083550 -0.3976493 -0.9175096 -0.0071576 -0.9075288 0.3944488 -0.1442278 0.0500000 0.0500000 0.0000000 0.5540946 0.0000000 1.0000000 -0.5000000 0.0000000
0.1641140 0.1946530 0.2212514 0.6864070 -0.7271713 -0.0082054 -0.2852180 -0.2588156 -0.9228571 0.0500000 0.0500000 0.0000000 0.0000000 0.0114696 0.6340131 -0.5000000 0.0000000
0.0729515 -0.0037870 0.0870678 0.9997934 -0.0128975 0.0157071 -0.0132744 -0.9996206 0.0241358 0.0500000 0.0500000 0.4923869 0.0000000 0.4260262 1.0000000 -0.5000000 0.0000000
-0.1842172 0.1940024 0.3451326 0.6921086 0.7214317 0.0228485 -0.1814642 0.2045524 -0.9618883 0.0500000 0.0500000 0.0409002 0.0944909 0.2093583 1.0000000 -0.5000000 0.0000000
-0.0026013 0.3445667 0.2966264 0.9910346 0.1232513 0.0515716 0.0149728 0.2811116 -0.9595583 0.0500000 0.0500000 0.0130238 0.1837724 0.4861253 1.0000000 -0.5000000 0.0000000
-0.3060171 0.0655611 0.3423239 0.9374818 -0.3479627 0.0070596 0.2017670 0.5268498 -0.8256630 0.0500000 0.0500000 0.1048058 0.0000000 0.0276439 0.9798872 -0.5000000 0.0000000
0.0891261 0.1119005 0.0967580 0.7086294 -0.7054278 -0.0146968 -0.7035797 -0.7048986 -0.0899647 0.0500000 0.0500000 0.0000000 0.7154335 0.2182965 1.0000000 -0.5000000 0.0000000
0.0230878 0.1969461 0.1252790 0.9965895 -0.0733160 0.0378706 -0.0720932 -0.9968615 -0.0327053 0.0500000 0.0500000 0.4282218 0.2861367 0.1061447 1.0000000 -0.5000000 0.0000000
-0.2425453 0.2410328 0.3974144 0.5040977 0.8627111 -0.0401876 -0.3094763 0.1369987 -0.9409866 0.0500000 0.0500000 0.3109230 0.0345792 0.6018080 1.0000000 -0.5000000 0.0000000
0.2319224 -0.0593330 0.4183112 0.0293720 -0.9995573 0.0047481 0.4318823 0.0084067 -0.9018908 0.0500000 0.0500000 0.2067679 0.0000000 0.3132767 1.0000000 -0.5000000 0.0000000
0.3642036 0.0662892 0.4565929 -0.3935434 0.9192996 -0.0034410 0.9179986 0.3927814 -0.0547854 0.0500000 0.0500000 0.0000000 0.0000000 0.0000000 1.0000000 -0.5000000 0.0000000
-0.0913561 0.2568253 0.2673736 0.8359622 0.5487010 0.0097160 0.1443539 -0.2027774 -0.9685263 0.0500000 0.0500000 0.0000000 0.0000000 0.0000000 0.9611438 -0.5000000 0.0000000
-0.1060271 -0.1037062 0.0509851 -0.7006552 0.7133902 -0.0125198 0.7104707 0.6959578 -0.1042786 0.0500000 0.0500000 0.0000000 0.0000000 0.0000000 1.0000000 -0.5000000 0.0000000
-0.2794425 -0.1653258 0.3540352 -0.5837135 0.8117441 -0.0187105 -0.1184112 -0.1078998 -0.9870848 0.0500000 0.0500000 0.0000000 0.0000000 0.4364036 0.9118242 -0.5000000 0.0000000
-0.2277378 0.1555412 0.4669179 0.6258855 0.7798871 0.0065930 -0.3764018 0.3094573 -0.8732456 0.0500000 0.0500000 0.0000000 0.6732399 0.1890553 0.8440443 -0.5000000 0.0000000
0.2774570 -0.0954618 0.4789109 -0.4827775 -0.8753489 -0.0262713 0.4302485 -0.2109509 -0.8777163 0.0500000 0.0500000 0.0000000 0.4814351 0.1124228 0.6876729 -0.5000000 0.0000000
-0.3194276 0.0154458 0.3129929 -0.8626816 0.5055280 -0.0148937 0.1512209 0.2297325 -0.9614339 0.0500000 0.0500000 0.0000000 0.0868703 0.0000000 0.9187484 -0.5000000 0.0000000
-0.1398748 0.1871991 0.4839759 0.8268873 0.5619868 -0.0206947 -0.2537519 0.3400158 -0.9055381 0.0500000 0.0500000 0.0000000 0.2516438 0.0915476 0.9058746 -0.5000000 0.0000000
0.2331274 0.1650661 0.1626573 0.6513581 -0.7586311 0.0145427 -0.6047049 -0.5305841 -0.5939802 0.0500000 0.0500000 0.0000000 0.0920571 0.0000000 0.8349784 -0.5000000 0.0000000
0.4447186 -0.0261782 0.2376926 -0.4901161 -0.8716337 -0.0063980 -0.5615345 0.3213455 -0.7625065 0.0500000 0.0500000 0.0000000 0.2108608 0.0000000 0.9116350 -0.5000000 0.0000000
-0.0103025 0.2652496 0.2169292 0.9948497 0.0977524 0.0268053 0.0885817 -0.7099261 -0.6986832 0.0500000 0.0500000 0.3796417 0.0000000 0.0000000 1.0000000 -0.5000000 0.0000000
0.0836191 0.2714176 0.1600415 0.9573708 -0.2817079 0.0638892 -0.1814188 -0.7584961 -0.6259160 0.0500000 0.0500000 0.1212440 0.0000000 0.0136329 0.8549326 -0.5000000 0.0000000
-0.1798855 0.1438287 0.3725522 0.8568432 0.5155747 0.0015777 -0.2271252 0.3802071 -0.8965806 0.0500000 0.0500000 0.0000000 0.0695702 0.0979467 1.0000000 -0.5000000 0.0000000
-0.2620720 -0.0215262 0.4473124 -0.7887626 -0.6146714 0.0057142 0.5862833 -0.7550628 -0.2935167 0.0500000 0.0500000 0.2173939 0.0359022 0.0000000 0.7517130 -0.5000000 0.0000000
0.1270689 0.0768956 0.5223164 0.4325842 -0.9014993 -0.0130347 0.8850766 0.4273696 -0.1843765 0.0500000 0.0500000 0.3995166 0.2600760 0.0000000 1.0000000 -0.5000000 0.0000000
-0.2415098 0.1430106 0.1522927 0.4529033 0.8907638 -0.0376620 0.4441221 -0.2620367 -0.8567919 0.0500000 0.0500000 0.0000000 0.5044257 0.1394985 1.0000000 -0.5000000 0.0000000
0.0547307 -0.2720576 0.3823619 -0.9404405 -0.3393715 -0.0199668 0.1102159 -0.2488076 -0.9622615 0.0500000 0.0500000 0.3759418 0.2316209 0.0000000 1.0000000 -0.5000000 0.0000000
-0.0001080 0.0181442 0.4876733 -0.9599028 -0.2788007 -0.0292690 0.2652862 -0.8696699 -0.4162901 0.0500000 0.0500000 0.0000000 0.6492959 0.0000000 0.7991424 -0.5000000 0.0000000
-0.0073612 0.0199693 0.6287324 0.7245998 0.6890044 0.0151019 0.2623303 -0.2554868 -0.9305425 0.0500000 0.0500000 0.0000000 0.0085729 0.0000000 0.7768085 -0.5000000 0.0000000
0.2316325 0.0382718 0.5291778 -0.0272022 0.9993675 0.0229045 0.2748852 0.0295079 -0.9610242 0.0500000 0.0500000 0.5269786 0.3567449 0.0000000 1.0000000 -0.5000000 0.0000000
0.1505528 -0.1574981 0.2728423 -0.5950546 -0.8028724 -0.0361374 0.0312488 0.0218172 -0.9992735 0.0500000 0.0500000 0.2146133 0.0000000 0.0000000 0.9293403 -0.5000000 0.0000000
0.1179946 0.2615676 0.2192068 0.8016313 -0.5971500 -0.0282687 0.0192766 0.0730813 -0.9971397 0.0500000 0.0500000 0.0000000 0.1113362 0.1569236 1.0000000 -0.5000000 0.0000000
-0.1529871 -0.1861261 0.4617028 -0.9199777 0.3918931 -0.0078050 -0.1565415 -0.3855942 -0.9092920 0.0500000 0.0500000 0.4784491 0.0000000 0.2075606 0.9781712 -0.5000000 0.0000000
0.0277684 -0.2318285 0.4734282 0.9379923 0.3466363 -0.0037099 -0.0665738 0.1696245 -0.9832576 0.0500000 0.0500000 0.0286863 0.0000000 0.0000000 1.0000000 -0.5000000 0.0000000
0.0564697 0.2558952 0.2005311 0.9372012 -0.3487046 -0.0076821 -0.2167040 -0.5648872 -0.7962046 0.0500000 0.0500000 0.0000000 0.1972880 0.1778347 0.7588606 -0.5000000 0.0000000
-0.1130155 -0.1186427 0.5381780 -0.6867240 0.7260087 0.0363532 -0.7090383 -0.6579708 -0.2536516 0.0500000 0.0500000 0.5949914 0.0000000 0.1900444 0.9257471 -0.5000000 0.0000000
0.2957683 0.0210060 0.0505743 0.1383522 -0.9902182 -0.0180737 -0.7591525 -0.0943127 -0.6440440 0.0500000 0.0500000 0.3544079 0.3758572 0.1114234 1.0000000 -0.5000000 0.0000000
-0.1336837 0.0028294 0.1375752 0.3273208 0.9445401 0.0265521 0.9418428 -0.3238649 -0.0896862 0.0500000 0.0500000 0.0000000 0.0268001 0.2589401 0.9508667 -0.5000000 0.0000000
0.0413033 0.2644591 0.3535282 0.9646052 -0.2613411 -0.0351806 0.0579136 0.3401084 -0.9386012 0.0500000 0.0500000 0.3396605 0.0000000 0.0000000 1.0000000 -0.5000000 0.0000000
-0.2764101 -0.2060642 0.2644111 -0.6584346 0.7508141 0.0523650 -0.1783492 -0.0880545 -0.9800194 0.0500000 0.0500000 0.2783068 0.0000000 0.0000000 0.8504085 -0.5000000 0.0000000
-0.1069262 -0.1442224 0.5765356 -0.9748763 0.2224634 -0.0112365 -0.2164073 -0.9578735 -0.1888020 0.0500000 0.0500000 0.2685706 0.0000000 0.3008200 0.7893790 -0.5000000 0.0000000
0.0109590 -0.1388084 0.0827864 -0.9943326 -0.1050854 -0.0161171 -0.1043474 0.9936832 -0.0412963 0.0500000 0.0500000 0.0000000 0.0266011 0.0000000 0.2297894 -0.5000000 0.0000000
-0.2336490 -0.0924527 0.1569854 -0.4575245 0.8889782 -0.0197236 0.6297067 0.3082666 -0.7130506 0.0500000 0.0500000 0.0000000 0.1234515 0.1752307 1.0000000 -0.5000000 0.0000000
0.1131312 0.0896039 0.1850453 -0.0018307 -0.9995337 0.0304793 -0.9843777 -0.0035650 -0.1760338 0.0500000 0.0500000 0.7418746 0.2465586 0.2452384 0.8901439 -0.5000000 0.0000000
0.1276947 -0.0562136 0.0661677 0.9995794 -0.0058454 0.0284064 -0.0055635 -0.9999346 -0.0099907 0.0500000 0.0500000 0.0000000 0.2910521 0.0000000 0.6789896 -0.5000000 0.0000000
0.3162987 0.0330774 0.3178982 0.0485938 -0.9986907 0.0159841 0.4136171 0.0055541 -0.9104340 0.0500000 0.0500000 0.1265012 0.0000000 0.0000000 0.9234238 -0.5000000 0.0000000
-0.2162371 0.0960972 0.4588809 0.3291347 0.9441426 -0.0162846 -0.3505291 0.1061473 -0.9305171 0.0500000 0.0500000 0.1790324 0.0000000 0.1733553 0.8932704 -0.5000000 0.0000000
-0.0258531 -0.0738799 0.5722188 -0.9923102 0.1232518 0.0113748 -0.1226451 -0.9666944 -0.2246335 0.0500000 0.0500000 0.0000000 0.6592005 0.0000000 0.9250391 -0.5000000 0.0000000
-0.4240203 0.0450079 0.4413624 0.9772298 0.2121640 0.0028738 0.0272071 -0.1118608 -0.9933514 0.0500000 0.0500000 0.2683693 0.3513389 0.0000000 0.9789836 -0.5000000 0.0000000
-0.2756766 0.1647670 0.3317884 0.5308314 0.8470705 0.0262587 -0.2390449 0.1793843 -0.9542949 0.0500000 0.0500000 0.0000000 0.0000000 0.0000000 1.0000000 -0.5000000 0.0000000
0.1252354 -0.0419215 0.5776992 -0.0701155 -0.9940924 0.0828502 0.9691372 -0.0875614 -0.2304477 0.0500000 0.0500000 0.1346223 0.0000000 0.0497310 0.8474915 -0.5000000 0.0000000
-0.2651949 0.1110456 0.2368422 0.2002036 0.9793197 -0.0291795 0.2972757 -0.0890970 -0.9506255 0.0500000 0.0500000 0.0000000 0.0869825 0.0000000 1.0000000 -0.5000000 0.0000000
-0.0412589 -0.1150400 0.1244650 0.9996583 -0.0261337 0.0005332 -0.0261376 -0.9991710 0.0312097 0.0500000 0.0500000 0.1344809 0.1995482 0.1185045 1.0000000 -0.5000000 0.0000000
0.0799483 -0.0637746 0.5022266 -0.5415665 -0.8406296 0.0069034 0.8143230 -0.5266226 -0.2440220 0.0500000 0.0500000 0.0000000 0.5653976 0.4301321 1.0000000 -0.5000000 0.0000000
-0.1836028 0.1861605 0.4473687 0.6848548 0.7266096 -0.0548855 -0.3985075 0.3104164 -0.8630373 0.0500000 0.0500000 0.4698906 0.0000000 0.0000000 0.8461842 -0.5000000 0.0000000
-0.1678747 0.2565412 0.2516641 0.8430873 0.5348174 -0.0563403 -0.0184492 -0.0759395 -0.9969417 0.0500000 0.0500000 0.0000000 0.0000000 0.0081141 0.9316611 -0.5000000 0.0000000
0.0906035 0.0271279 0.1275943 0.0998395 -0.9949449 0.0108057 -0.9940745 -0.1002096 -0.0421174 0.0500000 0.0500000 0.0000000 0.0000000 0.0000000 1.0000000 -0.5000000 0.0000000
0.2096564 0.2811288 0.2822542 0.7774691 -0.6289209 -0.0004634 0.0392323 0.0492343 -0.9980164 0.0500000 0.0500000 0.0000000 0.1609400 0.3260607 0.7732973 -0.5000000 0.0000000
0.0906698 0.2645836 0.3895366 0.9011395 -0.4332328 -0.0160282 0.1642573 0.3754090 -0.9121883 0.0500000 0.0500000 0.0000000 0.2370616 0.0000000 0.7945389 -0.5000000 0.0000000
0.2858053 -0.1001937 0.2590866 -0.2708882 -0.9621238 -0.0306160 -0.3864706 0.1378309 -0.9119447 0.0500000 0.0500000 0.1002157 0.6779925 0.0000000 1.0000000 -0.5000000 0.0000000
-0.3332391 -0.1385597 0.3230866 -0.3180755 0.9480351 -0.0075835 0.6788973 0.2221791 -0.6998106 0.0500000 0.0500000 0.2877101 0.1910210 0.0000000 1.0000000 -0.5000000 0.0000000
0.1962041 -0.1285281 0.4459220 -0.7231462 -0.6906773 -0.0049444 0.4668115 -0.4834552 -0.7405120 0.0500000 0.0500000 0.0000000 0.0000000 0.6006271 0.9415393 -0.5000000 0.0000000
0.2304809 0.0134795 0.4079873 -0.9170448 -0.3981999 0.0215815 0.3908321 -0.9081944 -0.1497771 0.0500000 0.0500000 0.3110832 0.0000000 0.4404988 1.0000000 -0.5000000 0.0000000
-0.3428709 -0.0943471 0.2692992 -0.1749684 0.9844834 0.0133588 0.8064883 0.1510906 -0.5716190 0.0500000 0.0500000 0.0000000 0.0000000 0.0000000 1.0000000 -0.5000000 0.0000000
-0.1388252 0.3165992 0.2882948 0.9882574 0.1525235 0.0091620 0.0276636 -0.1196283 -0.9924333 0.0500000 0.0500000 0.1388846 0.0000000 0.0000000 0.7492013 -0.5000000 0.0000000
0.2639908 -0.0550106 0.1929169 -0.2461956 -0.9688471 -0.0268912 -0.5639369 0.1657579 -0.8090114 0.0500000 0.0500000 0.0641184 0.0000000 0.0000000 0.9875663 -0.5000000 0.0000000
-0.1507350 0.1207207 0.1893237 0.5322344 0.8465735 -0.0063213 0.8369149 -0.5272588 -0.1468731 0.0500000 0.0500000 0.0164518 0.0000000 0.0000000 1.0000000 -0.5000000 0.0000000
-0.2914886 0.0611972 0.2552221 0.9965705 0.0823688 -0.0079072 -0.0043871 -0.0428295 -0.9990728 0.0500000 0.0500000 0.5695839 0.2165294 0.3376456 1.0000000 -0.5000000 0.0000000
0.3032933 0.0071317 0.2802225 -0.5325496 0.8463869 0.0044906 -0.5938492 -0.3698611 -0.7145249 0.0500000 0.0500000 0.0000000 0.0000000 0.0048458 0.9390965 -0.5000000 0.0000000
-0.0041873 0.0255349 0.5196409 -0.9684616 -0.2458848 -0.0402846 0.2487492 -0.9634461 -0.0994757 0.0500000 0.0500000 0.3028161 0.0000000 0.0000000 0.9403480 -0.5000000 0.0000000
0.1613287 0.2283979 0.2824394 0.7789317 -0.6270675 -0.0071928 -0.1799107 -0.2124648 -0.9604639 0.0500000 0.0500000 0.0000000 0.6230735 0.0000000 0.9044881 -0.5000000 0.0000000
0.1394526 -0.0794453 0.5093469 -0.4248701 -0.9049471 -0.0235811 0.8954175 -0.4162810 -0.1579164 0.0500000 0.0500000 0.0000000 0.0000000 0.0000000 0.9312260 -0.5000000 0.0000000
-0.2160672 0.2734253 0.3244616 0.7630994 0.6455856 0.0299758 -0.1217840 0.1891933 -0.9743585 0.0500000 0.0500000 0.1810726 0.1681953 0.0000000 0.7608366 -0.5000000 0.0000000
0.0181518 0.0436372 0.1279043 0.9984313 0.0454513 -0.0326966 0.0438944 -0.9979369 -0.0468536 0.0500000 0.0500000 0.0000000 0.0376454 0.2807552 0.8339449 -0.5000000 0.0000000
-0.1666799 -0.2457399 0.3010548 -0.8345768 0.5496133 0.0375075 -0.1260314 -0.1242097 -0.9842195 0.0500000 0.0500000 0.1376815 0.1041058 0.0000000 1.0000000 -0.5000000 0.0000000
0.2786955 0.0869638 0.4174322 0.9545488 -0.2979876 -0.0063155 0.2968719 0.9524334 -0.0688307 0.0500000 0.0500000 0.0000000 0.0000000 0.0000000 0.8463519 -0.5000000 0.0000000
-0.3139304 0.1064909 0.3239010 0.1752582 0.9840903 0.0291706 -0.0703069 0.0420637 -0.9966381 0.0500000 0.0500000 0.0000000 0.0000000 0.0000000 1.0000000 -0.5000000 0.0000000
-0.2080016 -0.2820715 0.2977230 -0.7575887 0.6526856 -0.0077959 -0.0040195 -0.0166080 -0.9998540 0.0500000 0.0500000 0.0340635 0.0000000 0.0000000 1.0000000 -0.5000000 0.0000000
0.1512127 0.0571212 0.5282147 -0.0115317 0.9999269 0.0036395 0.1380381 0.0051968 -0.9904133 0.0500000 0.0500000 0.0000000 0.0000000 0.5103874 0.8247487 -0.5000000 0.0000000
0.2053528 0.0235175 0.4940021 0.1022229 -0.9945942 -0.0182453 0.4352294 0.0612099 -0.8982364 0.0500000 0.0500000 0.5268171 0.6572066 0.0000000 1.0000000 -0.5000000 0.0000000
-0.2526283 -0.1782127 0.3753162 -0.4039137 0.9147108 -0.0125657 -0.2812611 -0.1372452 -0.9497662 0.0500000 0.0500000 0.2380797 0.0000000 0.0000000 0.8532235 -0.5000000 0.0000000
0.1620102 0.0525756 0.0520568 0.9996472 -0.0265587 0.0001708 -0.0265526 -0.9992332 0.0287758 0.0500000 0.0500000 0.0000000 0.0550415 0.0000000 1.0000000 -0.5000000 0.0000000
0.1075880 -0.2124194 0.5482666 0.7125495 0.7002013 -0.0446242 -0.6908836 0.6891387 -0.2185585 0.0500000 0.0500000 0.0000000 0.0000000 0.2035425 0.8898317 -0.5000000 0.0000000
-0.1947972 0.1959960 0.3683776 0.7916913 0.6108991 -0.0052074 -0.1866809 0.2337944 -0.9541962 0.0500000 0.0500000 0.0000000 0.0750230 0.0000000 0.9741699 -0.5000000 0.0000000
-0.4297601 0.0832284 0.3839521 0.1051513 0.9944496 0.0036408 0.4866747 -0.0482667 -0.8722488 0.0500000 0.0500000 0.0000000 0.0000000 0.3800423 1.0000000 -0.5000000 0.0000000
0.1121108 0.2744248 0.5570360 0.9913688 -0.1306892 0.0103993 0.1078663 0.7680074 -0.6312919 0.0500000 0.0500000 0.3905221 0.3303851 0.0253153 0.8752870 -0.5000000 0.0000000
-0.0968536 -0.2319252 0.1584837 -0.9014013 0.4270276 0.0715766 0.2936378 0.7243807 -0.6237383 0.0500000 0.0500000 0.3544848 0.1625267 0.0000000 1.0000000 -0.5000000 0.0000000
-0.1760003 -0.1835257 0.1243999 -0.5426841 0.8391377 0.0366324 0.6344634 0.4381170 -0.6367964 0.0500000 0.0500000 0.0000000 0.1309231 0.0000000 0.7270012 -0.5000000 0.0000000
-0.0501204 0.0812861 0.5371828 0.2657964 0.9640120 -0.0057519 -0.9070875 0.2480721 -0.3400773 0.0500000 0.0500000 0.0053529 0.0707095 0.0677591 1.0000000 -0.5000000 0.0000000
-0.3365760 -0.0491020 0.2948163 -0.3825275 0.9232181 0.0366209 -0.2273566 -0.0556386 -0.9722208 0.0500000 0.0500000 0.0000000 0.1269160 0.0000000 0.9222179 -0.5000000 0.0000000
-0.1524693 0.2103519 0.1577291 0.7920532 0.6104185 0.0064067 0.4864250 -0.6247538 -0.6107974 0.0500000 0.0500000 0.0000000 0.2095974 0.0000000 0.8188690 -0.5000000 0.0000000
-0.0044527 -0.0116843 0.5273500 -0.4671398 0.8840927 0.0126696 -0.8437149 -0.4414278 -0.3054287 0.0500000 0.0500000 0.5073417 0.1569859 0.3271746 0.9799595 -0.5000000 0.0000000
-0.3298679 0.0186579 0.2394793 0.6795409 0.7332690 0.0232533 0.6194569 -0.5565096 -0.5536879 0.0500000 0.0500000 0.1197441 0.2551237 0.0000000 1.0000000 -0.5000000 0.0000000
0.1740323 0.0545994 0.1804856 0.0638787 -0.9973913 0.0336171 -0.9396497 -0.0714580 -0.3345927 0.0500000 0.0500000 0.0000000 0.0000000 0.0000000 0.8568953 -0.5000000 0.0000000
0.2244422 0.1834338 0.1931793 0.5215989 -0.8528804 -0.0230157 -0.2060453 -0.0997425 -0.9734458 0.0500000 0.0500000 0.3538897 0.6303498 0.0000000 1.0000000 -0.5000000 0.0000000
0.0491014 -0.2599342 0.4735806 -0.9243855 -0.3814522 -0.0023802 0.3027652 -0.7298763 -0.6128735 0.0500000 0.0500000 0.0000000 0.0000000 0.0578539 1.0000000 -0.5000000 0.0000000
0.0073387 0.3295621 0.3277636 0.9900043 0.1372273 0.0325609 0.0090704 0.1684403 -0.9856701 0.0500000 0.0500000 0.2708329 0.0804479 0.0000000 0.9596941 -0.5000000 0.0000000
-0.0050012 0.3450134 0.1590908 0.9975301 0.0659003 -0.0243068 0.0203758 -0.6026658 -0.7977335 0.0500000 0.0500000 0.0000000 0.0000000 0.0000000 1.0000000 -0.5000000 0.0000000
-0.2919559 -0.0743871 0.4111022 -0.0183772 0.9997228 0.0147202 -0.3709159 0.0068553 -0.9286412 0.0500000 0.0500000 0.5639330 0.0490249 0.0420816 0.7521220 -0.5000000 0.0000000
0.1415862 -0.3170389 0.2376422 -0.8103137 -0.5859946 0.0013939 -0.1391466 0.1901003 -0.9718539 0.0500000 0.0500000 0.4418158 0.2481930 0.2311640 0.9124149 -0.5000000 0.0000000
-0.2400432 0.0813954 0.2874612 0.9913874 0.1307334 0.0077271 0.0547810 -0.3603802 -0.9311955 0.0500000 0.0500000 0.0000000 0.2474617 0.0000000 1.0000000 -0.5000000 0.0000000
0.0333933 0.0920735 0.5344528 0.6230150 -0.7813486 0.0366984 0.7745102 0.6096364 -0.1687522 0.0500000 0.0500000 0.0000000 0.0000000 0.0000000 0.9086227 -0.5000000 0.0000000
0.1995117 0.0159349 0.3892823 0.3585276 -0.9331054 -0.0277893 0.4235818 0.1891363 -0.8858927 0.0500000 0.0500000 0.0000000 0.2781525 0.1479169 0.9550724 -0.5000000 0.0000000
0.2239277 0.0042348 0.4734507 -0.9994106 -0.0239043 0.0246383 0.0243676 -0.9995286 0.0186780 0.0500000 0.0500000 0.0000000 0.0790090 0.0000000 1.0000000 -0.5000000 0.0000000
0.2048632 0.1364270 0.2740670 0.3239059 -0.9444481 0.0557021 0.1901953 0.0073287 -0.9817189 0.0500000 0.0500000 0.0000000 0.0000000 0.3245055 0.9396756 -0.5000000 0.0000000
0.1571305 -0.2174660 0.3284587 -0.9564631 -0.2818919 0.0755990 -0.0416513 -0.1245384 -0.9913402 0.0500000 0.0500000 0.1784561 0.3039717 0.3304005 0.9719134 -0.5000000 0.0000000
0.0344592 -0.0466353 0.4701238 -0.9994772 0.0310315 0.0090743 -0.0322155 -0.9795832 -0.1984414 0.0500000 0.0500000 0.6068806 0.0000000 0.0000000 0.5925273 -0.5000000 0.0000000
-0.1892327 0.2040080 0.1658863 0.6037313 0.7969775 -0.0183159 0.2055476 -0.1778243 -0.9623558 0.0500000 0.0500000 0.0000000 0.1795663 0.0745077 1.0000000 -0.5000000 0.0000000
-0.2632064 0.1952103 0.3648048 0.6131048 0.7898041 0.0176642 -0.0097314 0.0299084 -0.9995053 0.0500000 0.0500000 0.0000000 0.2426385 0.0000000 0.9870078 -0.5000000 0.0000000
0.1791701 -0.2820829 0.5348675 -0.7871216 -0.6152463 -0.0437201 0.2637069 -0.2716036 -0.9255756 0.0500000 0.0500000 0.4433319 0.0000000 0.0735088 0.9710836 -0.5000000 0.0000000
-0.0223007 -0.1737947 0.1139950 -0.9002481 0.4314689 -0.0582065 0.4341263 0.8997306 -0.0449361 0.0500000 0.0500000 0.0842136 0.0000000 0.0000000 0.9533955 -0.5000000 0.0000000
-0.0798230 -0.0462435 0.4526949 0.1796157 0.9809522 -0.0739662 -0.9779030 0.1698687 -0.1218619 0.0500000 0.0500000 0.1473130 0.0000000 0.3706300 1.0000000 -0.5000000 0.0000000
0.1337565 -0.1951656 0.2330187 -0.8174999 -0.5729691 -0.0583118 -0.3864295 0.6207714 -0.6821401 0.0500000 0.0500000 0.0000000 0.1176192 0.0000000 0.9038922 -0.5000000 0.0000000
-0.2201121 0.0740258 0.1827097 0.2316182 0.9723685 0.0291985 0.9589963 -0.2231875 -0.1746809 0.0500000 0.0500000 0.0000000 0.0000000 0.4458855 1.0000000 -0.5000000 0.0000000
0.3075745 -0.1557053 0.3067194 -0.4229710 -0.9060796 -0.0107430 0.2076175 -0.0853649 -0.9744782 0.0500000 0.0500000 0.2580961 0.2505260 0.0000000 1.0000000 -0.5000000 0.0000000
-0.0893717 0.2897947 0.4860795 0.9523203 0.3050432 0.0058897 -0.1080999 0.3554053 -0.9284404 0.0500000 0.0500000 0.0000000 0.1573244 0.0000000 0.8847730 -0.5000000 0.0000000
0.0083582 0.2513277 0.3636311 0.9943294 -0.0966215 0.0444214 0.0758895 0.3520861 -0.9328859 0.0500000 0.0500000 0.0000000 0.0000000 0.2865393 1.0000000 -0.5000000 0.0000000
-0.3265167 0.0954568 0.3734976 0.2067213 0.9778714 0.0321537 -0.3422993 0.1030703 -0.9339206 0.0500000 0.0500000 0.0000000 0.1317737 0.0000000 1.0000000 -0.5000000 0.0000000
0.1419235 -0.1745952 0.3598630 -0.7275406 -0.6858877 -0.0155778 0.2214546 -0.2132915 -0.9515590 0.0500000 0.0500000 0.0656748 0.4128359 0.4126369 0.7098196 -0.5000000 0.0000000
-0.1729121 0.1571501 0.1852968 0.6395013 0.7682917 0.0276774 0.2612386 -0.1833058 -0.9477095 0.0500000 0.0500000 0.3410802 0.5051302 0.2279694 0.8190452 -0.5000000 0.0000000
-0.1513505 0.2820596 0.2518830 0.8323260 0.5539035 -0.0205985 -0.0048615 -0.0298657 -0.9995421 0.0500000 0.0500000 0.3186731 0.0000000 0.0000000 0.5456818 -0.5000000 0.0000000
0.1890211 -0.1236941 0.4552152 -0.2374041 -0.9713582 -0.0101256 0.9617575 -0.2335663 -0.1430710 0.0500000 0.0500000 0.0000000 0.0000000 0.3059653 0.9065874 -0.5000000 0.0000000
-0.1334189 -0.1592818 0.3539851 -0.7918109 0.6107444 0.0051734 -0.2036055 -0.2559633 -0.9450014 0.0500000 0.0500000 0.0000000 0.3295776 0.1744044 1.0000000 -0.5000000 0.0000000
-0.0278539 -0.0955589 0.5237433 -0.9712585 0.2379349 0.0066239 -0.2334965 -0.9469989 -0.2206184 0.0500000 0.0500000 0.0000000 0.0000000 0.2112950 1.0000000 -0.5000000 0.0000000
0.1674152 0.1333629 0.3958779 0.5570251 -0.8303047 -0.0178094 0.3133384 0.2299715 -0.9213751 0.0500000 0.0500000 0.6242961 0.0000000 0.1012382 0.7623516 -0.5000000 0.0000000
0.4141491 -0.0108067 0.4806662 -0.9379354 -0.3424417 -0.0548705 0.3261672 -0.8172276 -0.4751358 0.0500000 0.0500000 0.3220568 0.0000000 0.2998941 1.0000000 -0.5000000 0.0000000
-0.0524855 -0.0414964 0.5306561 -0.4151199 0.9094868 0.0225658 -0.3783859 -0.1500448 -0.9134061 0.0500000 0.0500000 0.6229058 0.0000000 0.0095789 0.7586143 -0.5000000 0.0000000
-0.3162329 0.0805322 0.3157566 0.9251144 0.3785721 0.0290952 0.1043185 -0.1797455 -0.9781662 0.0500000 0.0500000 0.3559873 0.1699942 0.2721353 1.0000000 -0.5000000 0.0000000
-0.0757609 0.0753742 0.4629378 0.7905375 0.6122651 0.0134867 -0.5750069 0.7496494 -0.3277084 0.0500000 0.0500000 0.0000000 0.0000000 0.0000000 1.0000000 -0.5000000 0.0000000
0.2207882 -0.2484085 0.2389607 -0.7474337 -0.6642988 0.0070711 -0.4358206 0.4822733 -0.7599164 0.0500000 0.0500000 0.0251664 0.0000000 0.1571057 0.9530969 -0.5000000 0.0000000
-0.1012813 -0.2330887 0.3675546 -0.9789264 0.2037106 -0.0143201 -0.0651171 -0.3778429 -0.9235770 0.0500000 0.0500000 0.0000000 0.0536149 0.2376020 1.0000000 -0.5000000 0.0000000
0.0296998 0.0686892 0.1163569 0.9997335 0.0175872 -0.0149553 0.0167695 -0.9984456 -0.0531528 0.0500000 0.0500000 0.1228611 0.0000000 0.1674258 0.9489314 -0.5000000 0.0000000
0.1187464 0.2356773 0.3108751 0.9578323 -0.2856027 -0.0314380 0.0770182 0.3606165 -0.9295289 0.0500000 0.0500000 0.0000000 0.2164741 0.0000000 1.0000000 -0.5000000 0.0000000
-0.0853133 -0.1126984 0.1562855 0.9998795 0.0154326 0.0016584 0.0154564 -0.9997603 -0.0155071 0.0500000 0.0500000 0.3592850 0.0000000 0.2533894 1.0000000 -0.5000000 0.0000000
0.4039544 0.0428670 0.3824673 0.4836950 0.8752073 -0.0071653 0.8176089 -0.4547537 -0.3531499 0.0500000 0.0500000 0.1621923 0.0553467 0.3417786 0.8509202 -0.5000000 0.0000000
-0.1491724 0.1228404 0.5182785 0.5948111 0.8037169 0.0154559 -0.7739905 0.5777925 -0.2590261 0.0500000 0.0500000 0.0000000 0.0909245 0.0000000 1.0000000 -0.5000000 0.0000000
0.3050198 0.0458751 0.1846850 0.0968745 -0.9952846 -0.0048915 -0.8734085 -0.0826532 -0.4799229 0.0500000 0.0500000 0.0000000 0.0000000 0.1695212 1.0000000 -0.5000000 0.0000000
0.2260237 0.1722082 0.2706738 0.4876070 -0.8723447 -0.0354143 0.1575391 0.1278108 -0.9792067 0.0500000 0.0500000 0.3431416 0.0406795 0.0000000 1.0000000 -0.5000000 0.0000000
-0.3167058 -0.1761661 0.1608994 -0.5379440 0.8424396 -0.0301964 0.5047751 0.2932240 -0.8119247 0.0500000 0.0500000 0.0000000 0.0000000 0.3105568 0.8684412 -0.5000000 0.0000000
0.0753136 0.0217868 0.4549019 0.2894347 -0.9570807 0.0149681 0.9433882 0.2825774 -0.1736915 0.0500000 0.0500000 0.0000000 0.1672105 0.2514624 0.8211190 -0.5000000 0.0000000
0.0597854 -0.2514269 0.3935258 -0.9836422 -0.1768391 -0.0342936 0.1060011 -0.4143198 -0.9039374 0.0500000 0.0500000 0.3405673 0.2364849 0.0000000 0.8905252 -0.5000000 0.0000000
0.1911560 -0.1121837 0.5122155 -0.6679684 -0.7441583 0.0068245 0.5859450 -0.5315628 -0.6116448 0.0500000 0.0500000 0.0000000 0.1815375 0.0000000 1.0000000 -0.5000000 0.0000000
-0.1392633 0.2665967 0.2916055 0.9508290 0.3093598 0.0148572 -0.0335833 0.1506694 -0.9880136 0.0500000 0.0500000 0.5177919 0.0380973 0.0000000 0.9842798 -0.5000000 0.0000000
0.0653467 0.2464889 0.3017801 0.9836197 -0.1790228 -0.0210521 0.0089550 0.1651765 -0.9862234 0.0500000 0.0500000 0.1315350 0.0000000 0.0000000 0.8877620 -0.5000000 0.0000000
0.2078073 -0.1444700 0.4634853 -0.7060119 -0.7077472 -0.0253217 0.7005702 -0.6927247 -0.1712713 0.0500000 0.0500000 0.2241327 0.1173276 0.0000000 0.9484327 -0.5000000 0.0000000
-0.1461739 -0.1777906 0.1338851 -0.6877067 0.7248347 0.0409173 0.3805806 0.4079350 -0.8299081 0.0500000 0.0500000 0.1554955 0.4921596 0.0000000 1.0000000 -0.5000000 0.0000000
0.1973608 -0.1499179 0.2067003 -0.6119991 -0.7908472 0.0042064 -0.5432769 0.4165391 -0.7289344 0.0500000 0.0500000 0.2739502 0.0000000 0.4603552 0.8519522 -0.5000000 0.0000000
-0.3397206 -0.0213848 0.2796311 -0.1635106 0.9865354 0.0035030 0.6842503 0.1159657 -0.7199677 0.0500000 0.0500000 0.0000000 0.0000000 0.0638181 1.0000000 -0.5000000 0.0000000
0.0254579 -0.1104760 0.5067734 -0.7821235 -0.6230265 -0.0109932 0.6133485 -0.7666219 -0.1899852 0.0500000 0.0500000 0.0000000 0.2083361 0.8525210 0.9621160 -0.5000000 0.0000000
-0.0634562 -0.2854971 0.1485267 -0.9875650 0.1568625 -0.0104648 0.1121833 0.6565138 -0.7459253 0.0500000 0.0500000 0.4034947 0.0000000 0.6076628 0.9941975 -0.5000000 0.0000000
-0.3909176 0.0964650 0.3766324 0.2134988 -0.9760680 0.0413451 0.3460587 0.0359823 -0.9375226 0.0500000 0.0500000 0.0000000 0.6725477 0.0541897 1.0000000 -0.5000000 0.0000000
-0.2615898 0.1551874 0.1899941 0.3863036 0.9223510 -0.0061754 0.4163273 -0.1803348 -0.8911515 0.0500000 0.0500000 0.0000000 0.0000000 0.0000000 1.0000000 -0.5000000 0.0000000
0.0057872 -0.3016794 0.4498039 -0.9856892 -0.1683607 -0.0084529 0.0700076 -0.3632226 -0.9290685 0.0500000 0.0500000 0.2228754 0.3899597 0.0000000 1.0000000 -0.5000000 0.0000000
0.2991497 0.0703931 0.3565524 0.3759448 -0.9249275 0.0563447 0.2772925 0.0542723 -0.9592515 0.0500000 0.0500000 0.0000000 0.1747975 0.3907016 0.8121454 -0.5000000 0.0000000
0.4396796 0.0220235 0.4265484 0.0269740 -0.9996230 -0.0051283 0.4351677 0.0163609 -0.9002008 0.0500000 0.0500000 0.1416675 0.1822270 0.2198427 1.0000000 -0.5000000 0.0000000
0.0014704 0.2771423 0.2531204 0.9998794 -0.0133081 0.0080016 -0.0022138 -0.6321918 -0.7748088 0.0500000 0.0500000 0.0000000 0.7031515 0.0000000 1.0000000 -0.5000000 0.0000000
-0.2831604 0.0883094 0.3991275 0.0908123 0.9958607 0.0038099 -0.4688804 0.0461316 -0.8820561 0.0500000 0.0500000 0.0000000 0.0000000 0.5363233 0.7095007 -0.5000000 0.0000000
-0.0202169 0.0900723 0.4916458 0.7390925 0.6730107 0.0282630 -0.6602280 0.7320983 -0.1677232 0.0500000 0.0500000 0.0000000 0.0000000 0.1876358 1.0000000 -0.5000000 0.0000000
-0.4151764 0.0985073 0.4454492 0.9255187 -0.3786946 -0.0023672 0.1169432 0.2917399 -0.9493219 0.0500000 0.0500000 0.0734604 0.0000000 0.0000000 0.5688124 -0.5000000 0.0000000
0.2824410 0.0203307 0.3904899 -0.0092794 -0.9995664 0.0279434 0.4064477 -0.0293023 -0.9132041 0.0500000 0.0500000 0.6478658 0.0165713 0.0000000 1.0000000 -0.5000000 0.0000000
-0.1899689 0.2276493 0.3214992 0.7855485 0.6162777 0.0558153 -0.1408562 0.2659153 -0.9536501 0.0500000 0.0500000 0.0000000 0.0000000 0.1021296 0.8622027 -0.5000000 0.0000000
0.0735735 0.0508900 0.0620355 0.9993598 0.0288890 0.0211026 0.0288904 -0.9995826 0.0002382 0.0500000 0.0500000 0.0000000 0.0269923 0.0256262 0.7782855 -0.5000000 0.0000000
-0.5445155 0.0240922 0.4645921 0.2452243 0.9692185 0.0219196 0.6399406 -0.1448460 -0.7546494 0.0500000 0.0500000 0.1474961 0.5934829 0.0000000 1.0000000 -0.5000000 0.0000000
0.3279179 -0.0710944 0.3373939 -0.1876873 -0.9820564 -0.0184015 0.2428228 -0.0282383 -0.9696596 0.0500000 0.0500000 0.0000000 0.0000000 0.0000000 1.0000000 -0.5000000 0.0000000
0.2326392 -0.1605484 0.0872965 -0.4045537 -0.9145134 -0.0012430 -0.7038820 0.3122438 -0.6380078 0.0500000 0.0500000 0.0000000 0.1163442 0.0000000 0.8296162 -0.5000000 0.0000000
-0.0281287 -0.2591006 0.3467205 -0.9645945 0.2622046 -0.0283948 -0.0574019 -0.3138039 -0.9477511 0.0500000 0.0500000 0.0395663 0.0000000 0.0292895 1.0000000 -0.5000000 0.0000000
0.4265240 0.0329406 0.3725554 -0.1510447 0.9873882 0.0474354 -0.4757851 -0.0305530 -0.8790308 0.0500000 0.0500000 0.0578331 0.0621236 0.0000000 0.8759522 -0.5000000 0.0000000
0.3276855 -0.0956508 0.3101829 -0.3505277 -0.9364970 -0.0101787 0.2533451 -0.0843519 -0.9636914 0.0500000 0.0500000 0.3664386 0.0000000 0.1599220 0.8559268 -0.5000000 0.0000000
-0.2611371 0.1818301 0.2028781 0.6818730 0.7313977 0.0103276 0.3784338 -0.3406563 -0.8606632 0.0500000 0.0500000 0.0000000 0.0000000 0.0000000 0.9868374 -0.5000000 0.0000000
0.2525020 0.1289843 0.3664436 0.5043145 -0.8632134 0.0230090 0.3810319 0.1985406 -0.9029930 0.0500000 0.0500000 0.0000000 0.5114483 0.6019064 1.0000000 -0.5000000 0.0000000
-0.1577338 -0.0589941 0.3467771 -0.3939048 0.9173391 0.0576895 -0.3636516 -0.0978940 -0.9263770 0.0500000 0.0500000 0.0000000 0.6684637 0.5540692 1.0000000 -0.5000000 0.0000000
0.0424926 -0.1092756 0.5182434 -0.9717206 -0.2354688 0.0177084 0.2272312 -0.9528501 -0.2011037 0.0500000 0.0500000 0.0000000 0.0000000 0.0000000 1.0000000 -0.5000000 0.0000000
-0.3702596 -0.2101120 0.1788201 -0.5785278 0.8140360 0.0514879 0.2209981 0.2171984 -0.9507811 0.0500000 0.0500000 0.2887345 0.0000000 0.0000000 0.9204586 -0.5000000 0.0000000
0.1175951 0.2290184 0.3191266 0.8917103 -0.4513178 -0.0341312 0.1215315 0.3113965 -0.9424767 0.0500000 0.0500000 0.0585219 0.0000000 0.0000000 0.8073949 -0.5000000 0.0000000
0.1652105 0.0006811 0.1652794 -0.5613683 -0.8267234 0.0373368 -0.8251604 0.5557289 -0.1013694 0.0500000 0.0500000 0.0000000 0.1696173 0.0000000 1.0000000 -0.5000000 0.0000000
0.0207570 -0.1486551 0.0906708 0.9986647 -0.0026967 0.0515907 -0.0055635 -0.9984429 0.0555051 0.0500000 0.0500000 0.3648201 0.0644352 0.4590390 1.0000000 -0.5000000 0.0000000
-0.2127304 -0.0017998 0.4532632 -0.1868057 0.9818821 -0.0317991 -0.4068283 -0.1067820 -0.9072421 0.0500000 0.0500000 0.0000000 0.0000000 0.0000000 1.0000000 -0.5000000 0.0000000
-0.0642980 -0.0643736 0.1053254 0.9992260 0.0088241 -0.0383349 0.0082080 -0.9998351 -0.0161991 0.0500000 0.0500000 0.4736263 0.0000000 0.4425454 0.9537060 -0.5000000 0.0000000
-0.2546157 -0.0700193 0.1655914 -0.1820465 0.9822275 0.0456975 0.7670151 0.1709315 -0.6184417 0.0500000 0.0500000 0.0947080 0.1609274 0.0451034 1.0000000 -0.5000000 0.0000000
-0.2195374 -0.1084083 0.4425070 -0.2594348 0.9653769 0.0272209 -0.3745938 -0.0746088 -0.9241824 0.0500000 0.0500000 0.0000000 0.3625934 0.0000000 0.8234275 -0.5000000 0.0000000
0.0531590 0.2627272 0.3507625 0.9987728 0.0272051 -0.0413850 -0.0481094 0.3345053 -0.9411651 0.0500000 0.0500000 0.5055104 0.2928751 0.0540444 0.7378491 -0.5000000 0.0000000
0.1554058 0.2960424 0.4197901 0.8303418 -0.5569320 -0.0189506 0.1039157 0.1881615 -0.9766252 0.0500000 0.0500000 0.1778345 0.2158960 0.0000000 0.8906638 -0.5000000 0.0000000
0.0678066 0.2140279 0.3117464 0.8504288 -0.5248882 -0.0355429 0.0900530 0.2118021 -0.9731548 0.0500000 0.0500000 0.0000000 0.0000000 0.1706705 0.6373890 -0.5000000 0.0000000
-0.2811509 0.1555697 0.3026363 0.6200335 0.7833434 0.0439494 -0.2528737 0.2525545 -0.9339545 0.0500000 0.0500000 0.0000000 0.0000000 0.0000000 0.5614865 -0.5000000 0.0000000
-0.3359222 0.0524453 0.3431744 0.3870416 -0.9220224 0.0085783 0.7716290 0.3187892 -0.5504200 0.0500000 0.0500000 0.0000000 0.0000000 0.0000000 0.9204363 -0.5000000 0.0000000
0.3207867 0.0771165 0.3567281 0.2322595 -0.9726432 0.0045444 0.2284581 0.0500113 -0.9722684 0.0500000 0.0500000 0.2765451 0.4751657 0.5016252 0.9941420 -0.5000000 0.0000000
0.1170901 -0.1429200 0.4218345 -0.8661126 -0.4998201 -0.0053759 0.2117764 -0.3571920 -0.9097058 0.0500000 0.0500000 0.0232637 0.0000000 0.2221373 0.9967527 -0.5000000 0.0000000
0.0158820 0.3029360 0.3487691 0.9990731 -0.0206082 -0.0377926 -0.0307549 0.2725526 -0.9616492 0.0500000 0.0500000 0.0000000 0.0453686 0.0000000 1.0000000 -0.5000000 0.0000000
-0.4373820 0.0283354 0.3775225 0.4572943 -0.8886567 -0.0342223 0.4395244 0.2592935 -0.8599914 0.0500000 0.0500000 0.3223432 0.1282307 0.0000000 0.8725639 -0.5000000 0.0000000
0.1350954 0.0909771 0.5020232 0.3904694 -0.9204417 0.0179084 0.9073181 0.3814621 -0.1768067 0.0500000 0.0500000 0.0042396 0.0838625 0.0000000 0.7350723 -0.5000000 0.0000000
0.0834876 0.1926587 0.3834950 0.9625127 -0.2710086 0.0111189 0.1277013 0.4166154 -0.9000689 0.0500000 0.0500000 0.0000000 0.2378623 0.0000000 0.9937673 -0.5000000 0.0000000
0.1174097 -0.2413018 0.1528306 -0.9117716 -0.4077420 -0.0491823 -0.1885764 0.5220205 -0.8318254 0.0500000 0.0500000 0.0391650 0.2600703 0.5198580 0.8822082 -0.5000000 0.0000000
-0.3189364 0.1066437 0.2264906 0.2118760 0.9768154 0.0306644 -0.1676964 0.0672497 -0.9835423 0.0500000 0.0500000 0.0000000 0.1640253 0.0000000 0.7227613 -0.5000000 0.0000000
-0.1482188 -0.2341734 0.2526540 -0.8184076 0.5737715 -0.0315478 0.2502003 0.3063782 -0.9184401 0.0500000 0.0500000 0.0000000 0.0000000 0.0046215 1.0000000 -0.5000000 0.0000000
-0.3197502 0.0662630 0.4305037 -0.0151731 0.9991152 0.0392246 -0.3439270 0.0316204 -0.9384638 0.0500000 0.0500000 0.0000000 0.0118238 0.0000000 1.0000000 -0.5000000 0.0000000
-0.0005751 0.1080923 0.0964764 0.9884430 0.1438973 -0.0476865 0.1409891 -0.9882158 -0.0595957 0.0500000 0.0500000 0.0234178 0.4234838 0.0000000 0.4805220 -0.5000000 0.0000000
0.0172553 -0.3277408 0.2859625 -0.9877830 0.1550285 0.0158419 -0.0198112 -0.0240920 -0.9995134 0.0500000 0.0500000 0.0876644 0.0000000 0.0000000 0.9488034 -0.5000000 0.0000000
0.2361746 0.1910088 0.3271132 0.6399967 -0.7662492 -0.0571530 0.2315610 0.2632607 -0.9365219 0.0500000 0.0500000 0.1886681 0.0000000 0.1510808 1.0000000 -0.5000000 0.0000000
-0.0392367 -0.0176602 0.1056747 0.9996856 0.0228544 -0.0103176 0.0227925 -0.9997218 -0.0060752 0.0500000 0.0500000 0.0000000 0.0000000 0.0000000 1.0000000 -0.5000000 0.0000000
-0.1234780 -0.0363447 0.1016977 -0.3800696 0.9248759 -0.0123149 0.9234502 0.3786566 -0.0621202 0.0500000 0.0500000 0.0637534 0.1045549 0.0444061 0.9114010 -0.5000000 0.0000000
-0.3129943 -0.0038870 0.3358537 0.7081296 -0.7040905 -0.0530006 0.6559406 0.6837683 -0.3196917 0.0500000 0.0500000 0.0000000 0.5306165 0.0000000 1.0000000 -0.5000000 0.0000000
0.1853013 -0.1923131 0.1541914 -0.7137056 -0.6995087 -0.0362196 -0.5142525 0.5583949 -0.6509528 0.0500000 0.0500000 0.0000000 0.0000000 0.0000000 0.8653683 -0.5000000 0.0000000
0.1527097 0.2470373 0.2863398 0.8939722 -0.4467220 0.0354010 0.1025885 0.1271166 -0.9865683 0.0500000 0.0500000 0.0000000 0.2620545 0.4036565 1.0000000 -0.5000000 0.0000000
0.2247587 0.1045277 0.2784002 0.5312518 -0.8471299 0.0119344 0.2340639 0.1332186 -0.9630508 0.0500000 0.0500000 0.0815480 0.0000000 0.1251339 0.7805475 -0.5000000 0.0000000
-0.1496038 -0.0690304 0.4179202 -0.0501863 0.9986353 0.0144509 -0.3684809 -0.0050657 -0.9296215 0.0500000 0.0500000 0.2550702 0.7549768 0.1917259 1.0000000 -0.5000000 0.0000000
0.0554026 0.1467159 0.5612405 -0.9199615 0.3909117 -0.0293051 0.1544002 0.2926174 -0.9436819 0.0500000 0.0500000 0.0000000 0.0000000 0.5175645 1.0000000 -0.5000000 0.0000000
-0.2450962 -0.1672520 0.1512648 -0.2524111 0.9675650 0.0103213 0.6993418 0.1897902 -0.6891304 0.0500000 0.0500000 0.0000000 0.0000000 0.0000000 1.0000000 -0.5000000 0.0000000
-0.2782859 -0.0358504 0.2151707 0.1672450 0.9842956 0.0564907 0.9562728 -0.1480057 -0.2522630 0.0500000 0.0500000 0.0000000 0.1293313 0.0000000 1.0000000 -0.5000000 0.0000000
0.4746626 -0.0143235 0.5027671 -0.0151357 -0.9998404 0.0094944 0.5392936 -0.0161591 -0.8419628 0.0500000 0.0500000 0.0000000 0.0748339 0.2795670 0.9990692 -0.5000000 0.0000000
-0.4548751 -0.0199168 0.4445212 -0.9901277 0.1400290 -0.0062478 0.0149936 0.0614888 -0.9979951 0.0500000 0.0500000 0.0000000 0.2695763 0.0048606 0.6961878 -0.5000000 0.0000000
-0.0535095 -0.0778042 0.1388078 0.9987873 0.0452884 -0.0193122 0.0461780 -0.9977589 0.0484222 0.0500000 0.0500000 0.0000000 0.0000000 0.0000000 0.8512685 -0.5000000 0.0000000
-0.0182376 0.1717782 0.1788127 0.9863629 0.1619228 0.0294833 0.1286326 -0.6466767 -0.7518397 0.0500000 0.0500000 0.0723924 0.1916238 0.4223445 0.7121878 -0.5000000 0.0000000
-0.5304848 -0.0083744 0.5323531 0.8658092 0.4976361 -0.0522761 0.0293869 -0.1548642 -0.9874986 0.0500000 0.0500000 0.0000000 0.5905160 0.0000000 0.8629129 -0.5000000 0.0000000
0.1230280 0.2408737 0.4949033 0.9977837 -0.0645368 0.0162099 0.0664596 0.9786113 -0.1946869 0.0500000 0.0500000 0.3504552 0.0000000 0.5357632 0.9845079 -0.5000000 0.0000000
-0.1615690 0.0394024 0.1230524 -0.1317575 0.9907639 0.0320455 0.9858520 0.1343463 -0.1002342 0.0500000 0.0500000 0.3090820 0.0343797 0.2922402 0.7365430 -0.5000000 0.0000000
-0.0369373 0.2580610 0.1721256 0.9902880 0.1383344 0.0139045 0.1158537 -0.7657723 -0.6325905 0.0500000 0.0500000 0.4612330 0.2839923 0.0000000 1.0000000 -0.5000000 0.0000000
0.2461341 0.0025923 0.4365118 0.0558075 -0.9983875 0.0103933 0.9669061 0.0514464 -0.2498916 0.0500000 0.0500000 0.0000000 0.0000000 0.0000000 0.8353088 -0.5000000 0.0000000
0.2270540 0.0611901 0.2742621 0.3829002 -0.9235984 -0.0187983 -0.5999298 -0.2331385 -0.7653304 0.0500000 0.0500000 0.0000000 0.1036388 0.0000000 0.6727954 -0.5000000 0.0000000
0.2443535 0.0332675 0.3927052 -0.9995107 -0.0308169 0.0053623 0.0268258 -0.9326628 -0.3597507 0.0500000 0.0500000 0.0908792 0.0000000 0.0886039 0.9344051 -0.5000000 0.0000000
-0.0462576 0.2333721 0.3506021 0.9652288 0.2613696 0.0044014 -0.1104336 0.4229729 -0.8993878 0.0500000 0.0500000 0.0000000 0.0314325 0.0000000 1.0000000 -0.5000000 0.0000000
0.1820959 0.0567950 0.4526406 0.3011905 -0.9535565 -0.0037736 0.7982398 0.2542930 -0.5460295 0.0500000 0.0500000 0.0000000 0.3323252 0.0000000 1.0000000 -0.5000000 0.0000000
-0.0389423 0.1523100 0.1959234 0.9751272 0.2206248 0.0212529 0.1647968 -0.6575577 -0.7351597 0.0500000 0.0500000 0.0000000 0.0000000 0.0000000 1.0000000 -0.5000000 0.0000000
-0.1023502 0.1618633 0.4582290 0.8837053 0.4676853 -0.0183140 -0.2334266 0.4064758 -0.8833399 0.0500000 0.0500000 0.0000000 0.1677768 0.0000000 1.0000000 -0.5000000 0.0000000
0.0787931 -0.3122283 0.2795153 -0.9537693 -0.3003025 -0.0119406 0.0947443 -0.2627310 -0.9602062 0.0500000 0.0500000 0.0214187 0.2626156 0.0948492 1.0000000 -0.5000000 0.0000000
-0.0275195 0.2654667 0.2253849 0.9802017 0.1977256 -0.0104544 0.1095682 -0.5856361 -0.8031345 0.0500000 0.0500000 0.0000000 0.0733012 0.0000000 1.0000000 -0.5000000 0.0000000
0.1089129 -0.1881363 0.1577520 -0.7704102 -0.6375474 0.0011588 -0.6154638 0.7432478 -0.2622728 0.0500000 0.0500000 0.0000000 0.0000000 0.0000000 1.0000000 -0.5000000 0.0000000
-0.1494335 -0.0507531 0.4893723 -0.5114376 0.8560152 -0.0752965 -0.5712118 -0.4041201 -0.7144257 0.0500000 0.0500000 0.7739020 0.1122410 0.0473114 1.0000000 -0.5000000 0.0000000
-0.2649530 -0.0730295 0.2232245 -0.0499875 0.9978579 0.0422007 -0.2855340 0.0262117 -0.9580101 0.0500000 0.0500000 0.0000000 0.1966034 0.0000000 1.0000000 -0.5000000 0.0000000
0.0383785 0.1286188 0.5464041 0.9088546 -0.4158713 0.0321619 0.4154315 0.8955789 -0.1592329 0.0500000 0.0500000 0.1701174 0.0867917 0.3949393 1.0000000 -0.5000000 0.0000000
0.2610923 -0.0070212 0.2226988 -0.1332956 -0.9875349 -0.0837084 -0.6731107 0.1522005 -0.7237106 0.0500000 0.0500000 0.5563813 0.0000000 0.0000000 0.9101766 -0.5000000 0.0000000
-0.1679690 -0.1751879 0.3436918 -0.6416734 0.7669777 -0.0006921 -0.0980908 -0.0829601 -0.9917136 0.0500000 0.0500000 0.3667722 0.1870753 0.1148663 0.7734306 -0.5000000 0.0000000
0.1313697 -0.1955312 0.2182791 -0.8564020 -0.5157464 0.0241099 0.0818725 -0.1817594 -0.9799288 0.0500000 0.0500000 0.1262687 0.0474051 0.1430556 1.0000000 -0.5000000 0.0000000
-0.2510813 -0.1979232 0.2997015 -0.5933014 0.8036207 0.0467683 -0.1694237 -0.0678635 -0.9832040 0.0500000 0.0500000 0.5088533 0.0511346 0.1194234 1.0000000 -0.5000000 0.0000000
-0.2575101 0.0337866 0.3134577 0.2833401 0.9581458 0.0409265 -0.2211084 0.1067921 -0.9693846 0.0500000 0.0500000 0.0000000 0.0000000 0.4363709 1.0000000 -0.5000000 0.0000000
-0.0333646 -0.2183344 0.4567772 0.9988259 0.0368393 -0.0314603 -0.0479542 0.8440299 -0.5341478 0.0500000 0.0500000 0.0000000 0.0940429 0.0000000 1.0000000 -0.5000000 0.0000000
-0.3904008 -0.0190014 0.3624650 -0.0093360 0.9972469 0.0735625 0.3982218 0.0711884 -0.9145226 0.0500000 0.0500000 0.0000000 0.0000000 0.3450379 1.0000000 -0.5000000 0.0000000
0.0689793 -0.2568882 0.4201141 -0.7537530 -0.6571470 0.0037679 0.2616320 -0.3053438 -0.9155948 0.0500000 0.0500000 0.0000000 0.0000000 0.0000000 0.9229762 -0.5000000 0.0000000
0.2169820 0.1422467 0.3125238 0.7266446 -0.6862278 -0.0328478 0.2191079 0.2767980 -0.9356146 0.0500000 0.0500000 0.0879055 0.1592149 0.0000000 0.7075331 -0.5000000 0.0000000
0.0409960 0.2039810 0.3030671 0.9804011 -0.1970120 -0.0001542 0.0522121 0.2605806 -0.9640392 0.0500000 0.0500000 0.0000000 0.0000000 0.1962320 1.0000000 -0.5000000 0.0000000
